ply
format ascii 1.0
element vertex 614
property float x
property float y
property float z
property float nx
property float ny
property float nz
property uint  faceID
property uint  segmentID
property uchar red
property uchar green
property uchar blue
comment segment 0 2570
comment segment 1 4402
comment segment 2 1101
comment segment 3 862
comment segment 4 254
comment segment 5 468
comment segment 6 1948
comment segment 7 722
comment segment 8 224
comment segment 9 1033
comment segment 10 1436
comment segment 11 366
comment segment 12 463
comment segment 13 287
end_header
0.154254 -0.221173 0.616535 0.219414 0.0193489 0.97544 12007 0 104 102 99 
0.171804 -0.260933 0.613087 0.24946 0.0241896 0.968083 12016 0 104 102 99 
0.151292 -0.249139 0.610318 -0.206341 -0.0184586 -0.978306 11992 0 104 102 99 
0.163601 -0.189129 0.606074 -0.281941 -0.0321856 -0.958892 12590 0 104 102 99 
0.17749 -0.250316 0.604023 -0.222269 -0.0169757 -0.974838 12015 0 104 102 99 
0.186447 -0.217994 0.607782 0.282192 0.0306033 0.95887 12598 0 104 102 99 
0.190188 -0.256345 0.607333 0.606743 -0.659576 -0.443648 12025 0 104 102 99 
0.177703 -0.218563 0.602916 -0.281941 -0.0321856 -0.958892 12024 0 104 102 99 
0.167223 -0.230905 0.613518 0.24946 0.0241896 0.968083 12582 0 104 102 99 
0.161995 -0.228243 0.607396 -0.248936 -0.0259831 -0.968171 12574 0 104 102 99 
0.181917 -0.240533 0.602414 -0.281941 -0.0321856 -0.958892 12590 0 104 102 99 
0.19274 -0.222881 0.598606 -0.306354 -0.03701 -0.951198 12606 0 104 102 99 
0.171649 -0.234259 0.605075 -0.248936 -0.0259831 -0.968171 12008 0 104 102 99 
0.189724 -0.205166 0.606398 0.286407 0.0317441 0.957582 12605 0 104 102 99 
0.163475 -0.214032 0.606634 -0.248936 -0.0259831 -0.968171 12008 0 104 102 99 
0.201528 -0.243419 0.603625 0.606703 -0.659539 -0.443756 12607 0 104 102 99 
0.189392 -0.244634 0.600354 -0.281941 -0.0321856 -0.958892 12590 0 104 102 99 
0.182397 -0.227501 0.601835 -0.281941 -0.0321856 -0.958892 12024 0 104 102 99 
0.176818 -0.266906 0.604749 0.606727 -0.659589 -0.443649 12583 0 104 102 99 
0.226205 -0.0516732 0.578828 -0.369318 -0.0517259 -0.927863 12688 0 104 102 99 
0.238957 -0.0986208 0.584262 0.368102 0.0517038 0.928347 12124 0 104 102 99 
0.232594 -0.103758 0.587036 0.362958 0.0498312 0.930472 12682 0 104 102 99 
0.222715 -0.0614315 0.588622 0.362958 0.0498312 0.930472 12682 0 104 102 99 
0.237616 -0.0613691 0.582656 0.379211 0.0555011 0.923644 12705 0 104 102 99 
0.244863 -0.0714991 0.572357 -0.379924 -0.0555461 -0.923348 12140 0 104 102 99 
0.23817 -0.0724736 0.583086 0.373434 0.0532942 0.926125 12696 0 104 102 99 
0.261322 -0.0507982 0.56399 -0.39165 -0.0601214 -0.918148 12197 0 104 102 99 
0.267989 -0.0628424 0.561935 -0.39165 -0.0601214 -0.918148 12763 0 104 102 99 
0.261478 -0.0446072 0.563519 0.391018 0.0598192 0.918437 12771 0 104 102 99 
0.220874 -0.0727428 0.589938 0.35515 0.047679 0.933593 12674 0 104 102 99 
0.254706 -0.0812599 0.568828 -0.389317 -0.0592928 -0.919194 12714 0 104 102 99 
0.273055 -0.0880697 0.561433 -0.394 -0.0611569 -0.917074 12747 0 104 102 99 
0.210002 -0.0619094 0.585741 -0.36356 -0.050573 -0.930197 12661 0 104 102 99 
0.226025 -0.0606893 0.579402 -0.369318 -0.0517259 -0.927863 12688 0 104 102 99 
0.253535 -0.100771 0.570549 -0.379924 -0.0555461 -0.923348 12140 0 104 102 99 
0.227631 -0.0678764 0.587041 0.368102 0.0517038 0.928347 12124 0 104 102 99 
0.276306 -0.0812134 0.567563 0.39453 0.0613899 0.91683 12196 0 104 102 99 
0.223444 -0.095569 0.582317 -0.36356 -0.050573 -0.930197 12661 0 104 102 99 
0.26217 -0.0837913 0.573798 0.389244 0.0591931 0.919231 12730 0 104 102 99 
0.247212 -0.0511749 0.578032 0.389244 0.0591931 0.919231 12730 0 104 102 99 
0.217729 -0.0593414 0.58263 -0.356767 -0.0475711 -0.932982 12671 0 104 102 99 
0.249001 -0.0827342 0.579259 0.382311 0.056497 0.922305 12147 0 104 102 99 
0.258349 -0.0493163 0.565167 0.393822 0.0610717 0.917156 12755 0 104 102 99 
0.245996 -0.0899987 0.580936 0.379211 0.0555011 0.923644 12705 0 104 102 99 
0.260788 -0.0612813 0.564917 -0.394 -0.0611569 -0.917074 12747 0 104 102 99 
0.280142 -0.0769065 0.55772 -0.367765 -0.0493387 -0.928609 12229 0 104 102 99 
0.205597 -0.0659201 0.59534 0.340486 0.0435839 0.939239 12655 0 104 102 99 
0.23626 -0.081862 0.576508 -0.369318 -0.0517259 -0.927863 12122 0 104 102 99 
0.241411 -0.087098 0.574738 -0.382694 -0.0568366 -0.922125 12131 0 104 102 99 
0.227797 -0.0891279 0.588124 0.362958 0.0498312 0.930472 12682 0 104 102 99 
0.264023 -0.0817765 0.564891 -0.393527 -0.0609654 -0.917289 12731 0 104 102 99 
0.258093 -0.0727693 0.574814 0.389244 0.0591931 0.919231 12164 0 104 102 99 
0.214793 -0.0826313 0.584995 -0.36356 -0.050573 -0.930197 12661 0 104 102 99 
0.240188 -0.0530987 0.573161 -0.389317 -0.0592928 -0.919194 12148 0 104 102 99 
0.277335 -0.0832469 0.559284 -0.39165 -0.0601214 -0.918148 12763 0 104 102 99 
0.218735 -0.0918504 0.583956 -0.36356 -0.050573 -0.930197 12661 0 104 102 99 
0.240221 -0.0803266 0.582711 0.373434 0.0532942 0.926125 12696 0 104 102 99 
0.245788 -0.0644046 0.571518 -0.389317 -0.0592928 -0.919194 12714 0 104 102 99 
0.232499 -0.0725042 0.585369 0.368102 0.0517038 0.928347 12690 0 104 102 99 
0.22593 -0.0761203 0.580333 -0.373902 -0.0538121 -0.925906 12114 0 104 102 99 
0.256601 -0.0569863 0.574414 0.393184 0.0608253 0.917446 12738 0 104 102 99 
0.245369 -0.0832247 0.572857 -0.382694 -0.0568366 -0.922125 12131 0 104 102 99 
0.257486 -0.093704 0.568454 -0.389317 -0.0592928 -0.919194 12714 0 104 102 99 
0.272439 -0.0554528 0.559631 -0.367765 -0.0493387 -0.928609 12229 0 104 102 99 
0.226624 -0.0567504 0.586821 0.368102 0.0517038 0.928347 12124 0 104 102 99 
0.281533 -0.0881141 0.557822 -0.384613 -0.0569687 -0.921319 12779 0 104 102 99 
0.276419 -0.0806117 0.559502 0.391018 0.0598192 0.918437 12771 0 104 102 99 
0.226552 -0.105939 0.581666 -0.36356 -0.050573 -0.930197 12095 0 104 102 99 
0.236305 -0.0462613 0.582287 0.379211 0.0555011 0.923644 12139 0 104 102 99 
0.241803 -0.0973791 0.575167 -0.369318 -0.0517259 -0.927863 12122 0 104 102 99 
0.212423 -0.0684274 0.592926 0.351059 0.0462663 0.935209 12098 0 104 102 99 
0.2276 -0.0888708 0.58036 -0.356767 -0.0475711 -0.932982 12105 0 104 102 99 
0.262373 -0.0895275 0.566114 -0.393527 -0.0609654 -0.917289 12165 0 104 102 99 
0.251531 -0.102518 0.579416 0.379211 0.0555011 0.923644 12705 0 104 102 99 
0.251463 -0.0438979 0.575748 0.393184 0.0608253 0.917446 12172 0 104 102 99 
0.254741 -0.0800145 0.576698 0.387977 0.0587573 0.919794 12156 0 104 102 99 
0.233184 -0.0653634 0.584688 0.373434 0.0532942 0.926125 12130 0 104 102 99 
0.271818 -0.0686589 0.568653 0.39453 0.0613899 0.91683 12196 0 104 102 99 
0.251499 -0.0941034 0.57892 0.382311 0.056497 0.922305 12147 0 104 102 99 
0.278896 -0.0885869 0.566942 0.39453 0.0613899 0.91683 12762 0 104 102 99 
0.230973 -0.0790268 0.578466 -0.373902 -0.0538121 -0.925906 12114 0 104 102 99 
0.231777 -0.0513039 0.57653 -0.382694 -0.0568366 -0.922125 12131 0 104 102 99 
0.272586 -0.0783461 0.560989 -0.39165 -0.0601214 -0.918148 12763 0 104 102 99 
0.254704 -0.06563 0.57579 0.389244 0.0591931 0.919231 12730 0 104 102 99 
0.270212 -0.0886393 0.570678 0.393468 0.0609293 0.917317 12746 0 104 102 99 
0.261654 -0.0561709 0.564204 0.393822 0.0610717 0.917156 12755 0 104 102 99 
0.248675 -0.0727255 0.578781 0.382311 0.056497 0.922305 12713 0 104 102 99 
0.225907 -0.0959707 0.589209 0.35515 0.047679 0.933593 12108 0 104 102 99 
0.267559 -0.0642637 0.570192 0.39453 0.0613899 0.91683 12196 0 104 102 99 
0.217298 -0.0781105 0.591572 0.35515 0.047679 0.933593 12674 0 104 102 99 
0.242379 -0.0669596 0.581037 0.379211 0.0555011 0.923644 12705 0 104 102 99 
0.277353 -0.0933274 0.559937 0.393822 0.0610717 0.917156 12755 0 104 102 99 
0.258535 -0.0449261 0.564795 -0.393822 -0.0610717 -0.917156 12189 0 104 102 99 
0.259092 -0.0497614 0.572865 0.394701 0.0614564 0.916752 12754 0 104 102 99 
0.224918 -0.0829574 0.588916 0.362958 0.0498312 0.930472 12682 0 104 102 99 
0.237623 -0.0471959 0.573866 -0.389317 -0.0592928 -0.919194 12714 0 104 102 99 
0.238547 -0.0867901 0.583758 0.373434 0.0532942 0.926125 12696 0 104 102 99 
0.235349 -0.0566996 0.575381 -0.379924 -0.0555461 -0.923348 12140 0 104 102 99 
0.256625 -0.0417553 0.565404 0.393822 0.0610717 0.917156 12755 0 104 102 99 
0.22967 -0.0968733 0.579977 -0.356767 -0.0475711 -0.932982 12671 0 104 102 99 
0.266283 -0.0572122 0.562294 -0.39165 -0.0601214 -0.918148 12197 0 104 102 99 
0.239292 -0.0749921 0.574871 -0.382694 -0.0568366 -0.922125 12697 0 104 102 99 
0.253908 -0.0756048 0.568803 -0.388134 -0.058732 -0.91973 12157 0 104 102 99 
0.251261 -0.0915997 0.570933 -0.379924 -0.0555461 -0.923348 12706 0 104 102 99 
0.269602 -0.0805331 0.570402 0.393468 0.0609293 0.917317 12746 0 104 102 99 
0.258973 -0.0988876 0.576115 0.382311 0.056497 0.922305 12713 0 104 102 99 
0.248728 -0.0518865 0.569467 -0.393527 -0.0609654 -0.917289 12731 0 104 102 99 
0.283313 -0.0831599 0.564648 0.403912 0.0656394 0.91244 12228 0 104 102 99 
0.267447 -0.0949618 0.572283 0.389244 0.0591931 0.919231 12730 0 104 102 99 
0.217957 -0.0762154 0.58341 -0.36356 -0.050573 -0.930197 12095 0 104 102 99 
0.267165 -0.0728717 0.570938 0.393468 0.0609293 0.917317 12746 0 104 102 99 
0.265986 -0.0685955 0.563172 -0.393822 -0.0610717 -0.917156 12189 0 104 102 99 
0.264975 -0.0496127 0.562356 0.391018 0.0598192 0.918437 12771 0 104 102 99 
0.22171 -0.0827773 0.582302 -0.356767 -0.0475711 -0.932982 12671 0 104 102 99 
0.233116 -0.0512292 0.583895 0.379211 0.0555011 0.923644 12139 0 104 102 99 
0.27579 -0.0714837 0.559192 -0.384613 -0.0569687 -0.921319 12779 0 104 102 99 
0.232847 -0.0835456 0.585845 0.368102 0.0517038 0.928347 12690 0 104 102 99 
0.217984 -0.0696065 0.583056 -0.356767 -0.0475711 -0.932982 12671 0 104 102 99 
0.246145 -0.0590442 0.578985 0.387977 0.0587573 0.919794 12722 0 104 102 99 
0.239484 -0.0613689 0.573961 -0.379924 -0.0555461 -0.923348 12140 0 104 102 99 
0.273929 -0.0617195 0.559374 -0.367765 -0.0493387 -0.928609 12229 0 104 102 99 
0.262259 -0.0915278 0.566295 0.388133 0.0587319 0.91973 12723 0 104 102 99 
0.251951 -0.072272 0.569416 0.388133 0.0587319 0.91973 12723 0 104 102 99 
0.252489 -0.0872362 0.578089 0.382311 0.056497 0.922305 12147 0 104 102 99 
0.25308 -0.0527696 0.567659 0.393321 0.0608667 0.917385 12739 0 104 102 99 
0.210548 -0.072032 0.586064 -0.342494 -0.0432891 -0.938522 12652 0 104 102 99 
0.258975 -0.0694638 0.566239 -0.393527 -0.0609654 -0.917289 12731 0 104 102 99 
0.266956 -0.0664141 0.56261 0.393822 0.0610717 0.917156 12755 0 104 102 99 
0.236724 -0.0952158 0.577084 -0.373902 -0.0538121 -0.925906 12680 0 104 102 99 
0.277685 -0.0718958 0.56633 0.396919 0.0624548 0.915726 12778 0 104 102 99 
0.227361 -0.0739258 0.58748 0.362958 0.0498312 0.930472 12116 0 104 102 99 
0.253883 -0.0581198 0.56767 -0.393527 -0.0609654 -0.917289 12165 0 104 102 99 
0.23415 -0.0627566 0.576251 -0.382694 -0.0568366 -0.922125 12131 0 104 102 99 
0.273119 -0.0761223 0.568593 0.39453 0.0613899 0.91683 12196 0 104 102 99 
0.219589 -0.0667672 0.590121 0.35515 0.047679 0.933593 12674 0 104 102 99 
0.266704 -0.0764566 0.563387 -0.394 -0.0611569 -0.917074 12181 0 104 102 99 
0.261515 -0.0592659 0.572458 0.393468 0.0609293 0.917317 12180 0 104 102 99 
0.251668 -0.0464889 0.567847 0.393321 0.0608667 0.917385 12739 0 104 102 99 
0.235432 -0.0778933 0.584502 0.373434 0.0532942 0.926125 12130 0 104 102 99 
0.251096 -0.062587 0.569158 0.388133 0.0587319 0.91973 12723 0 104 102 99 
0.279193 -0.0712905 0.556836 0.927513 0.373063 0.0233168 9698 0 104 102 99 
0.233644 -0.0974243 0.586287 0.362958 0.0498312 0.930472 12682 0 104 102 99 
0.270037 -0.0934191 0.563086 0.393321 0.0608667 0.917385 12739 0 104 102 99 
0.26245 -0.096486 0.566531 -0.388134 -0.058732 -0.91973 12157 0 104 102 99 
0.237618 -0.0674587 0.575102 -0.382694 -0.0568366 -0.922125 12697 0 104 102 99 
0.269712 -0.0830444 0.562534 -0.394 -0.0611569 -0.917074 12181 0 104 102 99 
0.25905 -0.0839294 0.567165 0.388133 0.0587319 0.91973 12723 0 104 102 99 
0.249177 -0.0655591 0.578122 0.387977 0.0587573 0.919794 12722 0 104 102 99 
0.246354 -0.0453595 0.570051 -0.393527 -0.0609654 -0.917289 12165 0 104 102 99 
0.257452 -0.0932734 0.576401 0.382311 0.056497 0.922305 12713 0 104 102 99 
0.267919 -0.0590544 0.561717 0.391018 0.0598192 0.918437 12771 0 104 102 99 
0.24701 -0.0554639 0.570428 0.388133 0.0587319 0.91973 12723 0 104 102 99 
0.255684 -0.0586008 0.566929 0.393321 0.0608667 0.917385 12739 0 104 102 99 
0.253926 -0.0516702 0.575208 0.393184 0.0608253 0.917446 12172 0 104 102 99 
0.230345 -0.0676779 0.578072 -0.369318 -0.0517259 -0.927863 12122 0 104 102 99 
0.238539 -0.0556705 0.581935 0.379211 0.0555011 0.923644 12705 0 104 102 99 
0.24484 -0.0990261 0.581925 0.373434 0.0532942 0.926125 12696 0 104 102 99 
0.244705 -0.0773141 0.580704 0.379211 0.0555011 0.923644 12139 0 104 102 99 
0.232824 -0.104712 0.579171 -0.356767 -0.0475711 -0.932982 12105 0 104 102 99 
0.232744 -0.0914875 0.58632 0.362958 0.0498312 0.930472 12682 0 104 102 99 
0.262126 -0.0404381 0.562976 -0.384613 -0.0569687 -0.921319 12213 0 104 102 99 
0.246878 -0.095556 0.57299 -0.382694 -0.0568366 -0.922125 12131 0 104 102 99 
0.233051 -0.087149 0.578098 -0.373902 -0.0538121 -0.925906 12114 0 104 102 99 
0.224819 -0.068339 0.58033 -0.373902 -0.0538121 -0.925906 12680 0 104 102 99 
0.273317 -0.0568383 0.559314 0.927513 0.373063 0.0233168 9698 0 104 102 99 
0.273657 -0.0724875 0.560149 0.391018 0.0598192 0.918437 12771 0 104 102 99 
0.248784 -0.0787267 0.571173 -0.389317 -0.0592928 -0.919194 12714 0 104 102 99 
0.252606 -0.044337 0.567302 -0.394 -0.0611569 -0.917074 12747 0 104 102 99 
0.238709 -0.103695 0.576775 -0.373902 -0.0538121 -0.925906 12114 0 104 102 99 
0.251409 -0.0667805 0.569294 -0.388134 -0.058732 -0.91973 12157 0 104 102 99 
0.261268 -0.0737967 0.565543 0.393321 0.0608667 0.917385 12739 0 104 102 99 
0.250409 -0.0849025 0.570881 -0.379924 -0.0555461 -0.923348 12706 0 104 102 99 
0.241145 -0.0930946 0.583074 0.373434 0.0532942 0.926125 12130 0 104 102 99 
0.279376 -0.0868312 0.558649 0.391018 0.0598192 0.918437 12771 0 104 102 99 
0.262123 -0.0670918 0.572717 0.393468 0.0609293 0.917317 12180 0 104 102 99 
0.258131 -0.0661775 0.566383 0.393321 0.0608667 0.917385 12739 0 104 102 99 
0.241366 -0.0498865 0.580411 0.382311 0.056497 0.922305 12147 0 104 102 99 
0.264049 -0.0896671 0.573381 0.389244 0.0591931 0.919231 12164 0 104 102 99 
0.264598 -0.079816 0.564515 0.393321 0.0608667 0.917385 12739 0 104 102 99 
0.24738 -0.0581446 0.570443 -0.388134 -0.058732 -0.91973 12157 0 104 102 99 
0.207936 -0.0719265 0.594771 0.340486 0.0435839 0.939239 12655 0 104 102 99 
0.204809 -0.0670291 0.587928 -0.342494 -0.0432891 -0.938522 12086 0 104 102 99 
0.214909 -0.064741 0.583983 -0.356767 -0.0475711 -0.932982 12671 0 104 102 99 
0.210158 -0.0618829 0.593453 0.351059 0.0462663 0.935209 12664 0 104 102 99 
0.267499 -0.0859243 0.563676 0.393321 0.0608667 0.917385 12739 0 104 102 99 
0.268833 -0.0938083 0.563628 -0.393527 -0.0609654 -0.917289 12731 0 104 102 99 
0.234181 -0.0727543 0.576828 -0.369318 -0.0517259 -0.927863 12122 0 104 102 99 
0.262455 -0.0773559 0.573256 0.393184 0.0608253 0.917446 12738 0 104 102 99 
0.243049 -0.0511774 0.571825 0.388133 0.0587319 0.91973 12723 0 104 102 99 
0.270281 -0.0787119 0.562001 0.393822 0.0610717 0.917156 12755 0 104 102 99 
0.275528 -0.0617694 0.557001 0.908256 0.341515 0.24174 9716 0 104 102 99 
0.231959 -0.0576725 0.584739 0.373434 0.0532942 0.926125 12130 0 104 102 99 
0.256023 -0.0778368 0.568053 0.388133 0.0587319 0.91973 12723 0 104 102 99 
0.255312 -0.0504619 0.566548 -0.394 -0.0611569 -0.917074 12181 0 104 102 99 
0.259427 -0.0768557 0.566536 -0.393527 -0.0609654 -0.917289 12731 0 104 102 99 
0.257197 -0.0872937 0.568163 -0.389317 -0.0592928 -0.919194 12714 0 104 102 99 
0.275539 -0.0671476 0.55903 0.382237 0.0558405 0.922376 12787 0 104 102 99 
0.256043 -0.0640856 0.567139 -0.393527 -0.0609654 -0.917289 12165 0 104 102 99 
0.211397 -0.0778324 0.586022 -0.342494 -0.0432891 -0.938522 12652 0 104 102 99 
0.227639 -0.10153 0.588834 0.35515 0.047679 0.933593 12674 0 104 102 99 
0.270443 -0.071737 0.561471 -0.39165 -0.0601214 -0.918148 12197 0 104 102 99 
0.268155 -0.0730707 0.562538 0.393822 0.0610717 0.917156 12755 0 104 102 99 
0.251397 -0.0573909 0.57666 0.389244 0.0591931 0.919231 12730 0 104 102 99 
0.258581 -0.0555229 0.565481 -0.394 -0.0611569 -0.917074 12747 0 104 102 99 
0.274139 -0.0870139 0.560897 0.393822 0.0610717 0.917156 12755 0 104 102 99 
0.213144 -0.0740935 0.592936 0.351059 0.0462663 0.935209 12098 0 104 102 99 
0.283309 -0.130262 0.567825 0.393468 0.0609293 0.917317 12746 0 104 102 99 
0.247301 -0.143525 0.575614 -0.356767 -0.0475711 -0.932982 12671 0 104 102 99 
0.248271 -0.141488 0.582941 0.362958 0.0498312 0.930472 12682 0 104 102 99 
0.270193 -0.131574 0.573466 0.382311 0.056497 0.922305 12713 0 104 102 99 
0.237284 -0.130384 0.578801 -0.36356 -0.050573 -0.930197 12661 0 104 102 99 
0.261518 -0.115392 0.568144 -0.379924 -0.0555461 -0.923348 12140 0 104 102 99 
0.273378 -0.0983547 0.56198 -0.394 -0.0611569 -0.917074 12747 0 104 102 99 
0.257387 -0.140162 0.571352 -0.373902 -0.0538121 -0.925906 12114 0 104 102 99 
0.251508 -0.118424 0.572477 -0.369318 -0.0517259 -0.927863 12122 0 104 102 99 
0.288645 -0.132693 0.558158 0.606759 -0.659512 -0.44372 12745 0 104 102 99 
0.278945 -0.133268 0.561912 -0.393527 -0.0609654 -0.917289 12731 0 104 102 99 
0.271287 -0.136887 0.565394 -0.389317 -0.0592928 -0.919194 12714 0 104 102 99 
0.27409 -0.153671 0.569438 0.606653 -0.659563 -0.443789 12138 0 104 102 99 
0.27031 -0.116161 0.572436 0.389244 0.0591931 0.919231 12164 0 104 102 99 
0.24718 -0.106268 0.573523 -0.369318 -0.0517259 -0.927863 12122 0 104 102 99 
0.231139 -0.119279 0.580599 -0.36356 -0.050573 -0.930197 12661 0 104 102 99 
0.23143 -0.129802 0.588828 0.351059 0.0462663 0.935209 12098 0 104 102 99 
0.253389 -0.11963 0.579663 0.373434 0.0532942 0.926125 12130 0 104 102 99 
0.259932 -0.125127 0.577324 0.382311 0.056497 0.922305 12147 0 104 102 99 
0.278597 -0.109099 0.560454 -0.394 -0.0611569 -0.917074 12747 0 104 102 99 
0.24012 -0.115581 0.584733 0.362958 0.0498312 0.930472 12116 0 104 102 99 
0.256855 -0.166389 0.580926 0.362958 0.0498312 0.930472 12682 0 104 102 99 
0.272807 -0.137666 0.572756 0.382311 0.056497 0.922305 12713 0 104 102 99 
0.290897 -0.124963 0.556231 -0.39165 -0.0601214 -0.918148 12197 0 104 102 99 
0.285367 -0.105752 0.565306 0.39453 0.0613899 0.91683 12762 0 104 102 99 
0.249947 -0.137439 0.574198 -0.373902 -0.0538121 -0.925906 12114 0 104 102 99 
0.240458 -0.134069 0.585591 0.362958 0.0498312 0.930472 12682 0 104 102 99 
0.253871 -0.155959 0.57369 -0.373902 -0.0538121 -0.925906 12680 0 104 102 99 
0.258361 -0.13653 0.578631 0.373434 0.0532942 0.926125 12696 0 104 102 99 
0.254534 -0.146736 0.580762 0.373434 0.0532942 0.926125 12696 0 104 102 99 
0.234006 -0.112245 0.579103 -0.356767 -0.0475711 -0.932982 12105 0 104 102 99 
0.28899 -0.125103 0.565043 0.39453 0.0613899 0.91683 12762 0 104 102 99 
0.260018 -0.105014 0.568111 -0.389317 -0.0592928 -0.919194 12148 0 104 102 99 
0.252726 -0.109541 0.571425 -0.382694 -0.0568366 -0.922125 12697 0 104 102 99 
0.266001 -0.163118 0.572421 0.606681 -0.659574 -0.443735 12121 0 104 102 99 
0.290271 -0.133845 0.565077 0.393468 0.0609293 0.917317 12180 0 104 102 99 
0.275134 -0.096104 0.569063 0.393468 0.0609293 0.917317 12180 0 104 102 99 
0.281312 -0.0970679 0.56647 0.39453 0.0613899 0.91683 12196 0 104 102 99 
0.263032 -0.130572 0.576373 0.382311 0.056497 0.922305 12713 0 104 102 99 
0.231908 -0.142548 0.589279 0.351059 0.0462663 0.935209 12664 0 104 102 99 
0.263475 -0.148889 0.57728 0.373434 0.0532942 0.926125 12130 0 104 102 99 
0.226022 -0.111593 0.582181 -0.36356 -0.050573 -0.930197 12095 0 104 102 99 
0.279034 -0.142796 0.562494 -0.389317 -0.0592928 -0.919194 12714 0 104 102 99 
0.255905 -0.169114 0.573629 -0.36356 -0.050573 -0.930197 12095 0 104 102 99 
0.260253 -0.156991 0.571172 -0.373902 -0.0538121 -0.925906 12114 0 104 102 99 
0.256803 -0.124504 0.570656 -0.382694 -0.0568366 -0.922125 12131 0 104 102 99 
0.233219 -0.134005 0.580587 -0.36356 -0.050573 -0.930197 12661 0 104 102 99 
0.270155 -0.10017 0.571468 0.393184 0.0608253 0.917446 12738 0 104 102 99 
0.260524 -0.115344 0.57648 0.382311 0.056497 0.922305 12147 0 104 102 99 
0.267905 -0.126377 0.574096 0.382311 0.056497 0.922305 12713 0 104 102 99 
0.253248 -0.133604 0.580524 0.373434 0.0532942 0.926125 12130 0 104 102 99 
0.273333 -0.149774 0.565353 -0.382694 -0.0568366 -0.922125 12697 0 104 102 99 
0.239916 -0.140697 0.586158 0.362958 0.0498312 0.930472 12682 0 104 102 99 
0.272965 -0.100319 0.562288 0.393321 0.0608667 0.917385 12739 0 104 102 99 
0.278748 -0.123164 0.56931 0.393184 0.0608253 0.917446 12738 0 104 102 99 
0.2198 -0.133955 0.585628 -0.351752 -0.0472418 -0.9349 12654 0 104 102 99 
0.275735 -0.116576 0.570165 0.393184 0.0608253 0.917446 12738 0 104 102 99 
0.240799 -0.141248 0.578017 -0.36356 -0.050573 -0.930197 12661 0 104 102 99 
0.268633 -0.142019 0.574753 0.382311 0.056497 0.922305 12713 0 104 102 99 
0.276692 -0.108915 0.569246 0.393468 0.0609293 0.917317 12746 0 104 102 99 
0.246355 -0.112928 0.582114 0.373434 0.0532942 0.926125 12696 0 104 102 99 
0.262033 -0.154788 0.578201 0.373434 0.0532942 0.926125 12130 0 104 102 99 
0.248675 -0.126592 0.581965 0.373434 0.0532942 0.926125 12130 0 104 102 99 
0.23388 -0.113856 0.587075 0.362958 0.0498312 0.930472 12116 0 104 102 99 
0.266324 -0.106108 0.573476 0.389244 0.0591931 0.919231 12164 0 104 102 99 
0.275172 -0.116678 0.562428 -0.393527 -0.0609654 -0.917289 12731 0 104 102 99 
0.278575 -0.147343 0.566164 0.606654 -0.659562 -0.44379 12146 0 104 102 99 
0.249442 -0.152035 0.575229 -0.356767 -0.0475711 -0.932982 12671 0 104 102 99 
0.266916 -0.124742 0.566462 -0.389317 -0.0592928 -0.919194 12714 0 104 102 99 
0.240206 -0.121808 0.585033 0.362958 0.0498312 0.930472 12682 0 104 102 99 
0.28485 -0.139874 0.563642 0.606681 -0.659556 -0.443762 12729 0 104 102 99 
0.242105 -0.113665 0.575983 -0.373902 -0.0538121 -0.925906 12680 0 104 102 99 
0.257144 -0.106892 0.577363 0.382311 0.056497 0.922305 12147 0 104 102 99 
0.261164 -0.147687 0.570266 -0.369318 -0.0517259 -0.927863 12688 0 104 102 99 
0.278768 -0.124643 0.561415 -0.393527 -0.0609654 -0.917289 12731 0 104 102 99 
0.235094 -0.139436 0.580149 -0.36356 -0.050573 -0.930197 12095 0 104 102 99 
0.245401 -0.107003 0.582158 0.373434 0.0532942 0.926125 12696 0 104 102 99 
0.276548 -0.149473 0.571928 0.382311 0.056497 0.922305 12147 0 104 102 99 
0.262075 -0.130712 0.56885 -0.382694 -0.0568366 -0.922125 12697 0 104 102 99 
0.288573 -0.098385 0.563416 0.406364 0.0666792 0.911275 12220 0 104 102 99 
0.287599 -0.118782 0.557233 -0.39165 -0.0601214 -0.918148 12763 0 104 102 99 
0.244492 -0.119249 0.575344 -0.373902 -0.0538121 -0.925906 12114 0 104 102 99 
0.237286 -0.147578 0.579735 -0.36356 -0.050573 -0.930197 12095 0 104 102 99 
0.232485 -0.124922 0.58038 -0.36356 -0.050573 -0.930197 12095 0 104 102 99 
0.28353 -0.12869 0.559641 -0.393527 -0.0609654 -0.917289 12731 0 104 102 99 
0.241387 -0.153372 0.578447 -0.36356 -0.050573 -0.930197 12095 0 104 102 99 
0.233962 -0.122335 0.587491 0.35515 0.047679 0.933593 12108 0 104 102 99 
0.248897 -0.127677 0.574055 -0.373902 -0.0538121 -0.925906 12680 0 104 102 99 
0.277361 -0.133366 0.570558 0.389244 0.0591931 0.919231 12164 0 104 102 99 
0.255179 -0.112659 0.578528 0.379211 0.0555011 0.923644 12139 0 104 102 99 
0.269369 -0.111686 0.564582 0.388133 0.0587319 0.91973 12723 0 104 102 99 
0.271404 -0.111174 0.563679 -0.393527 -0.0609654 -0.917289 12731 0 104 102 99 
0.264725 -0.111696 0.574511 0.387977 0.0587573 0.919794 12156 0 104 102 99 
0.272748 -0.127551 0.564173 -0.389317 -0.0592928 -0.919194 12148 0 104 102 99 
0.236657 -0.148428 0.587787 0.351059 0.0462663 0.935209 12098 0 104 102 99 
0.265931 -0.136678 0.567618 -0.382694 -0.0568366 -0.922125 12697 0 104 102 99 
0.227641 -0.135151 0.582738 -0.342494 -0.0432891 -0.938522 12086 0 104 102 99 
0.267964 -0.099704 0.564392 -0.393527 -0.0609654 -0.917289 12165 0 104 102 99 
0.265039 -0.143681 0.56842 -0.382694 -0.0568366 -0.922125 12131 0 104 102 99 
0.265803 -0.151282 0.568571 -0.382694 -0.0568366 -0.922125 12697 0 104 102 99 
0.278666 -0.150481 0.570953 0.606687 -0.659547 -0.443766 12155 0 104 102 99 
0.293574 -0.128374 0.56329 0.39453 0.0613899 0.91683 12762 0 104 102 99 
0.268911 -0.11864 0.565223 -0.389317 -0.0592928 -0.919194 12714 0 104 102 99 
0.249342 -0.149144 0.582933 0.362958 0.0498312 0.930472 12682 0 104 102 99 
0.268741 -0.153489 0.57541 0.382311 0.056497 0.922305 12147 0 104 102 99 
0.256439 -0.132366 0.571291 -0.382694 -0.0568366 -0.922125 12131 0 104 102 99 
0.284783 -0.139853 0.56783 0.393468 0.0609293 0.917317 12746 0 104 102 99 
0.294069 -0.129139 0.560291 0.60672 -0.659535 -0.443739 12187 0 104 102 99 
0.253493 -0.158714 0.581827 0.362958 0.0498312 0.930472 12682 0 104 102 99 
0.259796 -0.143709 0.578466 0.373434 0.0532942 0.926125 12130 0 104 102 99 
0.241582 -0.150799 0.586047 0.35515 0.047679 0.933593 12674 0 104 102 99 
0.289356 -0.110678 0.555953 0.391018 0.0598192 0.918437 12771 0 104 102 99 
0.25558 -0.149669 0.572634 -0.373902 -0.0538121 -0.925906 12114 0 104 102 99 
0.245976 -0.134565 0.583466 0.362958 0.0498312 0.930472 12682 0 104 102 99 
0.247851 -0.113891 0.57368 -0.369318 -0.0517259 -0.927863 12122 0 104 102 99 
0.286484 -0.117492 0.565612 0.39453 0.0613899 0.91683 12762 0 104 102 99 
0.281196 -0.103522 0.558966 -0.393822 -0.0610717 -0.917156 12189 0 104 102 99 
0.281749 -0.116066 0.559565 -0.394 -0.0611569 -0.917074 12747 0 104 102 99 
0.270696 -0.109577 0.571848 0.389244 0.0591931 0.919231 12730 0 104 102 99 
0.279977 -0.144927 0.570194 0.389244 0.0591931 0.919231 12730 0 104 102 99 
0.234069 -0.137027 0.588194 0.351059 0.0462663 0.935209 12098 0 104 102 99 
0.25886 -0.162835 0.572075 -0.373902 -0.0538121 -0.925906 12114 0 104 102 99 
0.281218 -0.112838 0.567565 0.393468 0.0609293 0.917317 12180 0 104 102 99 
0.239859 -0.135574 0.578077 -0.36356 -0.050573 -0.930197 12095 0 104 102 99 
0.265741 -0.101507 0.565463 0.388133 0.0587319 0.91973 12723 0 104 102 99 
0.240096 -0.109211 0.5844 0.368102 0.0517038 0.928347 12124 0 104 102 99 
0.269423 -0.160585 0.575555 0.373434 0.0532942 0.926125 12130 0 104 102 99 
0.263409 -0.167916 0.578402 0.373434 0.0532942 0.926125 12696 0 104 102 99 
0.275228 -0.106297 0.561714 0.393321 0.0608667 0.917385 12739 0 104 102 99 
0.27319 -0.121924 0.571587 0.389244 0.0591931 0.919231 12730 0 104 102 99 
0.264277 -0.120977 0.575269 0.382311 0.056497 0.922305 12713 0 104 102 99 
0.237431 -0.12232 0.578307 -0.356767 -0.0475711 -0.932982 12105 0 104 102 99 
0.268385 -0.105632 0.564606 -0.393527 -0.0609654 -0.917289 12731 0 104 102 99 
0.291818 -0.133822 0.564175 0.606735 -0.659526 -0.443732 12753 0 104 102 99 
0.280665 -0.102815 0.567133 0.39453 0.0613899 0.91683 12762 0 104 102 99 
0.238542 -0.127485 0.585986 0.362958 0.0498312 0.930472 12682 0 104 102 99 
0.273481 -0.156954 0.573658 0.382311 0.056497 0.922305 12713 0 104 102 99 
0.274336 -0.125511 0.563369 0.388133 0.0587319 0.91973 12723 0 104 102 99 
0.261276 -0.162217 0.578934 0.373434 0.0532942 0.926125 12130 0 104 102 99 
0.254185 -0.128036 0.579826 0.373434 0.0532942 0.926125 12130 0 104 102 99 
0.271477 -0.118529 0.564129 0.388133 0.0587319 0.91973 12723 0 104 102 99 
0.273883 -0.144409 0.572722 0.382311 0.056497 0.922305 12147 0 104 102 99 
0.271362 -0.158773 0.573291 0.606653 -0.659563 -0.443789 12138 0 104 102 99 
0.262856 -0.120932 0.567927 -0.379924 -0.0555461 -0.923348 12140 0 104 102 99 
0.242799 -0.126283 0.576436 -0.373902 -0.0538121 -0.925906 12114 0 104 102 99 
0.281215 -0.103041 0.558926 0.393822 0.0610717 0.917156 12755 0 104 102 99 
0.268508 -0.131015 0.566192 -0.389317 -0.0592928 -0.919194 12148 0 104 102 99 
0.229637 -0.141298 0.582297 -0.351752 -0.0472418 -0.9349 12088 0 104 102 99 
0.265625 -0.111749 0.56617 -0.389317 -0.0592928 -0.919194 12148 0 104 102 99 
0.292578 -0.0957462 0.561373 0.610038 0.324751 -0.722766 9599 0 104 102 99 
0.268223 -0.156759 0.567904 -0.382694 -0.0568366 -0.922125 12131 0 104 102 99 
0.223512 -0.139596 0.584516 -0.351752 -0.0472418 -0.9349 12088 0 104 102 99 
0.286146 -0.116022 0.557673 0.393822 0.0610717 0.917156 12755 0 104 102 99 
0.264111 -0.136853 0.576311 0.382311 0.056497 0.922305 12713 0 104 102 99 
0.253052 -0.161823 0.574347 -0.356767 -0.0475711 -0.932982 12105 0 104 102 99 
0.274721 -0.127832 0.571319 0.389244 0.0591931 0.919231 12164 0 104 102 99 
0.245403 -0.119879 0.582891 0.368102 0.0517038 0.928347 12124 0 104 102 99 
0.262054 -0.168558 0.57511 0.606719 -0.659561 -0.443702 12679 0 104 102 99 
0.2785 -0.0965998 0.559663 -0.393822 -0.0610717 -0.917156 12189 0 104 102 99 
0.283098 -0.144256 0.56776 0.606687 -0.659547 -0.443766 12721 0 104 102 99 
0.280561 -0.140431 0.561695 0.388133 0.0587319 0.91973 12723 0 104 102 99 
0.256841 -0.118611 0.570277 -0.382694 -0.0568366 -0.922125 12697 0 104 102 99 
0.254478 -0.153011 0.581137 0.362958 0.0498312 0.930472 12682 0 104 102 99 
0.284021 -0.092143 0.564964 0.396919 0.0624548 0.915726 12778 0 104 102 99 
0.28312 -0.108895 0.558498 0.393822 0.0610717 0.917156 12755 0 104 102 99 
0.244678 -0.132982 0.576067 -0.373902 -0.0538121 -0.925906 12680 0 104 102 99 
0.281409 -0.120646 0.560016 0.393321 0.0608667 0.917385 12739 0 104 102 99 
0.270588 -0.144583 0.566172 -0.382694 -0.0568366 -0.922125 12697 0 104 102 99 
0.252711 -0.142697 0.573387 -0.373902 -0.0538121 -0.925906 12114 0 104 102 99 
0.275757 -0.104102 0.561341 -0.394 -0.0611569 -0.917074 12181 0 104 102 99 
0.243921 -0.148097 0.57717 -0.36356 -0.050573 -0.930197 12095 0 104 102 99 
0.278239 -0.112268 0.56082 0.393321 0.0608667 0.917385 12739 0 104 102 99 
0.284678 -0.111275 0.557987 -0.39165 -0.0601214 -0.918148 12763 0 104 102 99 
0.277073 -0.131133 0.562573 0.388133 0.0587319 0.91973 12723 0 104 102 99 
0.27525 -0.103117 0.569479 0.393468 0.0609293 0.917317 12746 0 104 102 99 
0.278738 -0.13896 0.570335 0.389244 0.0591931 0.919231 12730 0 104 102 99 
0.286575 -0.133912 0.558681 0.393321 0.0608667 0.917385 12739 0 104 102 99 
0.283451 -0.122141 0.559239 -0.394 -0.0611569 -0.917074 12181 0 104 102 99 
0.254867 -0.141 0.580297 0.373434 0.0532942 0.926125 12696 0 104 102 99 
0.243703 -0.129261 0.584068 0.362958 0.0498312 0.930472 12682 0 104 102 99 
0.250789 -0.109421 0.580124 0.373434 0.0532942 0.926125 12130 0 104 102 99 
0.248699 -0.155789 0.58354 0.362958 0.0498312 0.930472 12682 0 104 102 99 
0.290177 -0.12572 0.556588 0.393822 0.0610717 0.917156 12755 0 104 102 99 
0.284415 -0.128467 0.559247 0.393321 0.0608667 0.917385 12739 0 104 102 99 
0.258223 -0.110408 0.5692 -0.379924 -0.0555461 -0.923348 12140 0 104 102 99 
0.155107 -0.038608 0.603668 -0.2585 -0.000629127 -0.966011 3222 0 104 102 99 
0.173843 -0.0289639 0.597937 -0.310422 -0.0234714 -0.950309 3482 0 104 102 99 
0.158383 -0.0529012 0.603263 -0.288987 -0.0304744 -0.956848 12613 0 104 102 99 
0.167722 -0.0175823 0.606476 0.306761 0.0357346 0.951115 12621 0 104 102 99 
0.18745 -0.0689057 0.601901 0.324368 0.039584 0.945102 12637 0 104 102 99 
0.138014 -0.0415044 0.608909 -0.260551 -0.0245411 -0.965148 12597 0 104 102 99 
0.185378 -0.0536002 0.594325 -0.326696 -0.0390462 -0.944323 12645 0 104 102 99 
0.178473 -0.0422722 0.596246 -0.326696 -0.0390462 -0.944323 12645 0 104 102 99 
0.153337 -0.0434724 0.604144 0.2585 0.000629143 0.966011 7974 0 104 102 99 
0.141225 -0.0624223 0.608574 -0.260551 -0.0245411 -0.965148 12597 0 104 102 99 
0.152864 -0.0482651 0.604782 -0.288987 -0.0304744 -0.956848 12047 0 104 102 99 
0.154149 -0.0413311 0.611607 0.286407 0.0317441 0.957582 12039 0 104 102 99 
0.150242 -0.0762546 0.604815 -0.232907 0.0105417 -0.972442 3048 0 104 102 99 
0.147457 -0.0602049 0.614212 0.257875 0.0263182 0.96582 12023 0 104 102 99 
0.167388 -0.0511902 0.607847 0.306761 0.0357346 0.951115 12621 0 104 102 99 
0.164535 -0.0336799 0.600904 0.283339 0.011495 0.958951 8147 0 104 102 99 
0.178156 -0.0580303 0.597172 -0.283323 -0.0115537 -0.958955 3313 0 104 102 99 
0.160606 -0.0781554 0.610897 0.286407 0.0317441 0.957582 12605 0 104 102 99 
0.137719 -0.0528209 0.608068 0.232914 -0.0105466 0.97244 7796 0 104 102 99 
0.185827 -0.0658825 0.594813 -0.354078 0.0522431 -0.933756 3489 0 104 102 99 
0.147401 -0.0443201 0.613725 0.286407 0.0317441 0.957582 12039 0 104 102 99 
0.163881 -0.0245785 0.607978 0.306761 0.0357346 0.951115 12055 0 104 102 99 
0.170556 -0.0400472 0.598866 -0.309245 -0.0348601 -0.950343 12629 0 104 102 99 
0.159641 -0.0391271 0.609891 0.306185 0.035568 0.951307 12614 0 104 102 99 
0.171288 -0.0360278 0.606019 0.306761 0.0357346 0.951115 12055 0 104 102 99 
0.169015 -0.0246825 0.599384 0.305467 0.031365 0.951686 8164 0 104 102 99 
0.138238 -0.0562213 0.609223 -0.260551 -0.0245411 -0.965148 12597 0 104 102 99 
0.163344 -0.0694377 0.601483 0.258536 0.000579722 0.966002 7890 0 104 102 99 
0.16652 -0.0620871 0.608535 0.306185 0.035568 0.951307 12614 0 104 102 99 
0.155553 -0.0732279 0.612244 0.286407 0.0317441 0.957582 12605 0 104 102 99 
0.155427 -0.0515587 0.611564 0.286407 0.0317441 0.957582 12605 0 104 102 99 
0.161538 -0.0312497 0.608984 0.306761 0.0357346 0.951115 12621 0 104 102 99 
0.144137 -0.036863 0.60643 0.215053 0.0727797 0.973887 7721 0 104 102 99 
0.145141 -0.053876 0.614658 0.257875 0.0263182 0.96582 12023 0 104 102 99 
0.140732 -0.0641084 0.616114 0.257875 0.0263182 0.96582 12023 0 104 102 99 
0.18567 -0.0469448 0.594518 0.31041 0.0234897 0.950312 8324 0 104 102 99 
0.160359 -0.0471411 0.602267 0.258626 0.00055362 0.965978 7887 0 104 102 99 
0.165029 -0.0409537 0.600845 -0.283366 -0.0114728 -0.958943 3310 0 104 102 99 
0.124997 -0.0424981 0.618041 -0.434929 0.832553 0.343064 12572 0 104 102 99 
0.171037 -0.0234373 0.598694 -0.305468 -0.031365 -0.951686 3412 0 104 102 99 
0.144798 -0.0556143 0.606342 0.232797 -0.010436 0.972469 7797 0 104 102 99 
0.153102 -0.02408 0.60394 -0.288987 -0.0304744 -0.956848 12613 0 104 102 99 
0.145332 -0.061442 0.606151 0.232948 -0.0106164 0.972431 7798 0 104 102 99 
0.172023 -0.060137 0.606688 0.306761 0.0357346 0.951115 12055 0 104 102 99 
0.162098 -0.0675155 0.602606 -0.288987 -0.0304744 -0.956848 12047 0 104 102 99 
0.154688 -0.0610855 0.612101 0.286407 0.0317441 0.957582 12039 0 104 102 99 
0.142075 -0.0515179 0.608067 -0.260551 -0.0245411 -0.965148 12031 0 104 102 99 
0.185498 -0.0611909 0.594917 0.315015 0.0158332 0.948955 8326 0 104 102 99 
0.147873 -0.0688837 0.606943 -0.260551 -0.0245411 -0.965148 12597 0 104 102 99 
0.175679 -0.0699714 0.598297 -0.309245 -0.0348601 -0.950343 12063 0 104 102 99 
0.175121 -0.0616012 0.598111 0.283401 0.0114225 0.958933 8152 0 104 102 99 
0.179579 -0.0504964 0.596206 -0.338394 -0.0438524 -0.939982 12638 0 104 102 99 
0.161732 -0.0770054 0.601906 0.263069 -0.00706398 0.964751 7891 0 104 102 99 
0.152966 -0.0307433 0.604023 -0.21496 -0.0728812 -0.9739 3059 0 104 102 99 
0.137115 -0.034247 0.613379 -0.434934 0.832551 0.343062 12588 0 104 102 99 
0.161314 -0.0187886 0.601093 -0.309245 -0.0348601 -0.950343 12063 0 104 102 99 
0.177726 -0.0402575 0.604038 0.324368 0.039584 0.945102 12637 0 104 102 99 
0.160954 -0.0585607 0.602115 -0.258519 -0.000645931 -0.966006 3225 0 104 102 99 
0.132326 -0.037285 0.614681 -0.434932 0.832551 0.343064 12580 0 104 102 99 
0.14374 -0.0455557 0.606704 -0.232914 0.0105466 -0.97244 3044 0 104 102 99 
0.133353 -0.0432862 0.617516 0.257875 0.0263182 0.96582 12023 0 104 102 99 
0.162225 -0.0820882 0.601588 -0.302003 0.0745957 -0.950384 3316 0 104 102 99 
0.157905 -0.0633651 0.60374 -0.288987 -0.0304744 -0.956848 12047 0 104 102 99 
0.16369 -0.0608508 0.601385 0.258532 0.000625281 0.966003 7889 0 104 102 99 
0.129688 -0.0385099 0.607687 -0.107279 0.501987 0.858196 2606 0 104 102 99 
0.165361 -0.0314899 0.600242 -0.309245 -0.0348601 -0.950343 12063 0 104 102 99 
0.160478 -0.0373002 0.602147 -0.283335 -0.0115219 -0.958952 3309 0 104 102 99 
0.119787 -0.0435444 0.613974 -0.434931 0.832552 0.343062 12006 0 104 102 99 
0.145738 -0.0564244 0.607203 -0.260551 -0.0245411 -0.965148 12597 0 104 102 99 
0.158676 -0.0305637 0.602566 -0.278574 -0.0194206 -0.960218 3237 0 104 102 99 
0.134565 -0.0437216 0.608819 0.190681 0.060682 0.979775 7723 0 104 102 99 
0.128485 -0.045659 0.611587 -0.260551 -0.0245411 -0.965148 12597 0 104 102 99 
0.15751 -0.0305205 0.602904 0.278574 0.0194206 0.960218 7989 0 104 102 99 
0.18558 -0.0619311 0.602251 0.324368 0.039584 0.945102 12637 0 104 102 99 
0.161143 -0.0391944 0.601973 0.283377 0.011452 0.95894 8148 0 104 102 99 
0.170663 -0.0515523 0.599253 -0.309245 -0.0348601 -0.950343 12063 0 104 102 99 
0.157992 -0.0212129 0.608216 -0.43492 0.832553 0.343073 12612 0 104 102 99 
0.158942 -0.0641829 0.602657 0.258532 0.000625281 0.966003 7889 0 104 102 99 
0.188139 -0.0566747 0.601152 0.324368 0.039584 0.945102 12637 0 104 102 99 
0.177008 -0.0351665 0.597056 0.310441 0.023421 0.950304 8235 0 104 102 99 
0.145458 -0.0291922 0.606411 -0.288987 -0.0304744 -0.956848 12613 0 104 102 99 
0.152022 -0.0253435 0.610672 -0.434928 0.832554 0.343063 12596 0 104 102 99 
0.172764 -0.0769918 0.607082 0.306761 0.0357346 0.951115 12055 0 104 102 99 
0.142233 -0.0692483 0.606809 0.232882 -0.0104981 0.972448 7710 0 104 102 99 
0.134923 -0.0590238 0.60867 0.232905 -0.0105312 0.972442 7708 0 104 102 99 
0.167512 -0.0716911 0.608575 0.306185 0.035568 0.951307 12614 0 104 102 99 
0.179256 -0.0658044 0.596926 -0.288056 -0.00359453 -0.957607 3401 0 104 102 99 
0.134137 -0.0520186 0.617545 0.257875 0.0263182 0.96582 12589 0 104 102 99 
0.150038 -0.0320329 0.612528 0.286407 0.0317441 0.957582 12039 0 104 102 99 
0.131692 -0.0515457 0.610871 -0.260551 -0.0245411 -0.965148 12597 0 104 102 99 
0.135094 -0.0579935 0.617452 0.257875 0.0263182 0.96582 12589 0 104 102 99 
0.128142 -0.0389996 0.61151 -0.260551 -0.0245411 -0.965148 12031 0 104 102 99 
0.151077 -0.08297 0.604535 0.23723 -0.0179632 0.971288 7713 0 104 102 99 
0.172969 -0.0695065 0.606735 0.306761 0.0357346 0.951115 12055 0 104 102 99 
0.168033 -0.0655371 0.600226 -0.258599 -0.000523164 -0.965985 3227 0 104 102 99 
0.160365 -0.0556884 0.602271 0.25854 0.000629886 0.966 7888 0 104 102 99 
0.174457 -0.047338 0.598136 0.283339 0.0114686 0.958951 8150 0 104 102 99 
0.175108 -0.0245925 0.604281 0.324368 0.039584 0.945102 12637 0 104 102 99 
0.141322 -0.0716372 0.616161 0.257875 0.0263182 0.96582 12589 0 104 102 99 
0.159024 -0.0668914 0.610996 0.286407 0.0317441 0.957582 12605 0 104 102 99 
0.163812 -0.045556 0.608788 0.306761 0.0357346 0.951115 12055 0 104 102 99 
0.152986 -0.0553086 0.604969 -0.288987 -0.0304744 -0.956848 12613 0 104 102 99 
0.170054 -0.074966 0.599651 -0.263182 0.00717919 -0.964719 3228 0 104 102 99 
0.144487 -0.0355496 0.606254 -0.215053 -0.0727797 -0.973887 2969 0 104 102 99 
0.150529 -0.0767006 0.604741 0.232907 -0.0105424 0.972442 7712 0 104 102 99 
0.14456 -0.0745927 0.607983 -0.260551 -0.0245411 -0.965148 12597 0 104 102 99 
0.171148 -0.0362365 0.598981 0.283369 0.0114658 0.958942 8148 0 104 102 99 
0.177987 -0.064596 0.604932 0.306761 0.0357346 0.951115 12621 0 104 102 99 
0.181257 -0.069518 0.604047 0.323206 0.0392264 0.945515 12064 0 104 102 99 
0.151786 -0.063512 0.605595 -0.306354 -0.03701 -0.951198 12040 0 104 102 99 
0.168553 -0.0577399 0.600005 0.283324 0.0115436 0.958955 8151 0 104 102 99 
0.17895 -0.0505215 0.604047 0.323206 0.0392264 0.945515 12064 0 104 102 99 
0.157273 -0.0224262 0.601169 -0.0874098 0.529115 0.844036 2787 0 104 102 99 
0.16836 -0.0575373 0.600222 -0.309245 -0.0348601 -0.950343 12629 0 104 102 99 
0.169368 -0.0708769 0.599869 0.263069 -0.00706398 0.964751 7891 0 104 102 99 
0.149769 -0.037509 0.605075 0.253881 0.0084606 0.967199 7900 0 104 102 99 
0.173892 -0.0297479 0.597941 0.310424 0.0234651 0.950308 8234 0 104 102 99 
0.134522 -0.0462898 0.609973 -0.260551 -0.0245411 -0.965148 12597 0 104 102 99 
0.144022 -0.0333261 0.614371 0.286407 0.0317441 0.957582 12039 0 104 102 99 
0.146866 -0.0697228 0.614629 0.257875 0.0263182 0.96582 12589 0 104 102 99 
0.169097 -0.0516281 0.599771 0.283339 0.0114686 0.958951 8150 0 104 102 99 
0.167573 -0.0403863 0.607381 0.306761 0.0357346 0.951115 12055 0 104 102 99 
0.167816 -0.0442242 0.600061 0.283347 0.0115049 0.958948 8149 0 104 102 99 
0.174112 -0.0464444 0.598228 -0.283339 -0.0114686 -0.958951 3398 0 104 102 99 
0.142585 -0.0298325 0.609602 -0.434934 0.832552 0.343059 12030 0 104 102 99 
0.179822 -0.0562234 0.603986 0.323206 0.0392264 0.945515 12064 0 104 102 99 
0.183946 -0.0408785 0.60193 0.324368 0.039584 0.945102 12637 0 104 102 99 
0.1329 -0.0333253 0.602965 -0.370698 0.78719 0.492864 7077 0 104 102 99 
0.163677 -0.0476489 0.601325 -0.283332 -0.0114802 -0.958953 3311 0 104 102 99 
0.175058 -0.035177 0.597134 -0.326696 -0.0390462 -0.944323 12079 0 104 102 99 
0.152663 -0.0228654 0.60547 -0.434919 0.832553 0.343077 12038 0 104 102 99 
0.140291 -0.0423584 0.607536 0.228463 -0.00294064 0.973548 7722 0 104 102 99 
0.137994 -0.0353879 0.608759 -0.260551 -0.0245411 -0.965148 12597 0 104 102 99 
0.174192 -0.0634749 0.598542 -0.309245 -0.0348601 -0.950343 12063 0 104 102 99 
0.150658 -0.0539499 0.604868 0.258626 0.00055362 0.965978 7887 0 104 102 99 
0.183289 -0.0712924 0.595841 -0.338394 -0.0438524 -0.939982 12638 0 104 102 99 
0.152121 -0.0595227 0.60448 0.258549 0.000614163 0.965998 7976 0 104 102 99 
0.180821 -0.0673544 0.596461 0.288055 0.0035977 0.957607 8067 0 104 102 99 
0.142378 -0.0403647 0.615027 0.257875 0.0263182 0.96582 12023 0 104 102 99 
0.167404 -0.030686 0.607071 0.306761 0.0357346 0.951115 12621 0 104 102 99 
0.146693 -0.0762942 0.614854 0.257875 0.0263182 0.96582 12023 0 104 102 99 
0.173163 -0.0466326 0.605813 0.306761 0.0357346 0.951115 12621 0 104 102 99 
0.156849 -0.0824017 0.603135 0.237345 -0.0180864 0.971257 7802 0 104 102 99 
0.156238 -0.071278 0.604496 -0.288987 -0.0304744 -0.956848 12047 0 104 102 99 
0.185983 -0.0553526 0.594624 0.310435 0.023432 0.950306 8325 0 104 102 99 
0.158504 -0.0441149 0.602762 -0.258604 -0.000590121 -0.965983 3223 0 104 102 99 
0.164841 -0.0256717 0.600679 -0.278574 -0.0194206 -0.960218 3237 0 104 102 99 
0.166579 -0.0161102 0.599282 -0.309245 -0.0348601 -0.950343 12629 0 104 102 99 
0.156361 -0.0335698 0.610688 0.286407 0.0317441 0.957582 12039 0 104 102 99 
0.161001 -0.0746976 0.602113 -0.258599 -0.000523164 -0.965985 3227 0 104 102 99 
0.156361 -0.070538 0.603352 0.258532 0.000625281 0.966003 7889 0 104 102 99 
0.180492 -0.0503393 0.596293 0.310403 0.0234923 0.950315 8324 0 104 102 99 
0.146883 -0.0454698 0.605873 0.258536 0.000596706 0.966001 7885 0 104 102 99 
0.176038 -0.0741666 0.597716 0.327274 -0.0644328 0.94273 8242 0 104 102 99 
0.155826 -0.078991 0.604896 -0.306354 -0.03701 -0.951198 12040 0 104 102 99 
0.160772 -0.0553227 0.61009 0.286407 0.0317441 0.957582 12039 0 104 102 99 
0.191353 -0.0617148 0.592946 0.353458 -0.0500102 0.934113 8327 0 104 102 99 
0.139466 -0.0534061 0.61616 0.257875 0.0263182 0.96582 12589 0 104 102 99 
0.150431 -0.0682653 0.604856 0.232908 -0.0105155 0.972442 7799 0 104 102 99 
0.149258 -0.040031 0.605609 -0.288987 -0.0304744 -0.956848 12613 0 104 102 99 
0.136182 -0.0664919 0.608288 0.232858 -0.0105407 0.972454 7709 0 104 102 99 
0.142594 -0.0492376 0.606939 0.232914 -0.0105466 0.97244 7796 0 104 102 99 
0.128747 -0.0475097 0.618827 0.219414 0.0193489 0.97544 12573 0 104 102 99 
0.178699 -0.0425766 0.596687 0.310414 0.0235207 0.95031 8236 0 104 102 99 
0.152933 -0.0664584 0.612804 0.286407 0.0317441 0.957582 12605 0 104 102 99 
0.141735 -0.0299947 0.60361 -0.28138 0.715652 0.639272 2418 0 104 102 99 
0.186774 -0.0594617 0.594084 -0.326696 -0.0390462 -0.944323 12079 0 104 102 99 
0.135907 -0.036225 0.607145 -0.114988 0.509287 0.85288 7450 0 104 102 99 
0.163358 -0.0237146 0.600894 0.239297 0.0834411 0.967354 7899 0 104 102 99 
0.186373 -0.0503789 0.601494 0.324368 0.039584 0.945102 12071 0 104 102 99 
0.174429 -0.0682607 0.598387 0.288056 0.0035945 0.957607 8153 0 104 102 99 
0.173734 -0.0524489 0.605847 0.306761 0.0357346 0.951115 12621 0 104 102 99 
0.151936 -0.0793224 0.613513 0.282192 0.0306033 0.95887 12598 0 104 102 99 
0.169757 -0.0643894 0.59973 0.283401 0.0114225 0.958933 8152 0 104 102 99 
0.141078 -0.0684891 0.607094 -0.232876 0.0104912 -0.97245 2958 0 104 102 99 
0.138551 -0.0474674 0.616242 0.257875 0.0263182 0.96582 12023 0 104 102 99 
0.177614 -0.0740007 0.605406 0.306761 0.0357346 0.951115 12621 0 104 102 99 
0.126813 -0.0396695 0.613479 -0.434931 0.83255 0.343067 12580 0 104 102 99 
0.155266 -0.0361324 0.60362 0.253881 0.0084606 0.967199 7900 0 104 102 99 
0.149944 -0.0504802 0.613168 0.286407 0.0317441 0.957582 12605 0 104 102 99 
0.174206 -0.0310095 0.604859 0.324368 0.039584 0.945102 12071 0 104 102 99 
0.179277 -0.0578915 0.596839 0.283401 0.0114225 0.958933 8152 0 104 102 99 
0.161952 -0.0167578 0.602424 -0.434913 0.832547 0.343097 12620 0 104 102 99 
0.174361 -0.0544276 0.59825 0.283324 0.0115436 0.958955 8151 0 104 102 99 
0.18314 -0.0455525 0.594767 -0.326696 -0.0390462 -0.944323 12645 0 104 102 99 
0.157527 -0.0463132 0.610762 0.286407 0.0317441 0.957582 12605 0 104 102 99 
0.161101 -0.0724504 0.610559 0.286407 0.0317441 0.957582 12039 0 104 102 99 
0.169224 -0.0232203 0.606204 0.306761 0.0357346 0.951115 12621 0 104 102 99 
0.157525 -0.0271977 0.610126 0.306185 0.035568 0.951307 12048 0 104 102 99 
0.164436 -0.0534758 0.60117 -0.283333 -0.0115276 -0.958952 3312 0 104 102 99 
0.147869 -0.0510531 0.606379 -0.288987 -0.0304744 -0.956848 12047 0 104 102 99 
0.14766 -0.0377426 0.613429 0.286407 0.0317441 0.957582 12039 0 104 102 99 
0.158554 -0.024572 0.602204 -0.309245 -0.0348601 -0.950343 12063 0 104 102 99 
0.151408 -0.0560583 0.612915 0.286407 0.0317441 0.957582 12605 0 104 102 99 
0.145478 -0.304759 0.618163 0.606706 -0.659554 -0.44373 11977 0 104 102 99 
0.168221 -0.27328 0.607004 -0.248936 -0.0259831 -0.968171 12008 0 104 102 99 
0.15391 -0.273023 0.610216 -0.206341 -0.0184586 -0.978306 12558 0 104 102 99 
0.106024 -0.252858 0.616818 -0.0869392 0.000748193 -0.996213 12526 0 104 102 99 
0.168716 -0.280415 0.613749 0.606687 -0.659516 -0.443813 12575 0 104 102 99 
0.126474 -0.260606 0.61485 -0.152897 -0.00958748 -0.988196 12542 0 104 102 99 
0.112294 -0.298382 0.616236 -0.0869392 0.000748193 -0.996213 11960 0 104 102 99 
0.121437 -0.308988 0.61543 -0.0869392 0.000748193 -0.996213 12526 0 104 102 99 
0.15372 -0.258114 0.617296 0.207276 0.0164814 0.978144 12566 0 104 102 99 
0.124719 -0.298111 0.615152 -0.0869392 0.000748193 -0.996213 11960 0 104 102 99 
0.138342 -0.29865 0.620634 0.154201 0.00744816 0.988012 11984 0 104 102 99 
0.145843 -0.272338 0.611905 -0.206341 -0.0184586 -0.978306 12558 0 104 102 99 
0.150101 -0.270897 0.618278 0.207276 0.0164814 0.978144 12000 0 104 102 99 
0.143887 -0.255644 0.619338 0.207276 0.0164814 0.978144 12000 0 104 102 99 
0.156921 -0.270078 0.616819 0.207276 0.0164814 0.978144 12000 0 104 102 99 
0.104628 -0.267634 0.624277 0.0361418 -0.00962911 0.9993 12525 0 104 102 99 
0.115924 -0.258247 0.61595 -0.0869392 0.000748193 -0.996213 12526 0 104 102 99 
0.148371 -0.300309 0.619081 0.154201 0.00744816 0.988012 12550 0 104 102 99 
0.162507 -0.280433 0.61581 0.207276 0.0164814 0.978144 12000 0 104 102 99 
0.124567 -0.254013 0.622448 0.154201 0.00744816 0.988012 12550 0 104 102 99 
0.108862 -0.290911 0.6239 0.0361418 -0.00962911 0.9993 11959 0 104 102 99 
0.135987 -0.287335 0.620916 0.154201 0.00744816 0.988012 12550 0 104 102 99 
0.103507 -0.280072 0.616776 0.0482653 0.027449 -0.998457 11951 0 104 102 99 
0.13518 -0.310808 0.61399 -0.152897 -0.00958748 -0.988196 12542 0 104 102 99 
0.124455 -0.297453 0.622498 0.0885767 -0.00299224 0.996065 11968 0 104 102 99 
0.140674 -0.304933 0.613083 -0.152897 -0.00958748 -0.988196 11976 0 104 102 99 
0.125706 -0.267615 0.622372 0.154201 0.00744816 0.988012 12550 0 104 102 99 
0.117522 -0.291251 0.615785 -0.0869392 0.000748193 -0.996213 11960 0 104 102 99 
0.153955 -0.279481 0.617606 0.207276 0.0164814 0.978144 12000 0 104 102 99 
