ply
format ascii 1.0
element vertex 701
property float32 x
property float32 y
property float32 z
property float32 nx
property float32 ny
property float32 nz
property uchar red
property uchar green
property uchar blue
element face 0
property list uint8 int32 vertex_index
end_header
-0.276192 0.0260714 1.04175 -0.21734 -0.97486 0.0490963 220 3 122
-0.155481 0.165495 0.885786 -0.0669641 0.987474 0.142869 220 3 122
-0.543168 0.141728 -0.369049 -0.475696 0.851184 -0.221807 49 139 104
0.0732418 0.153725 -1.19209 0.4665 0.851543 -0.239272 220 3 122
-0.367876 0.0538922 0.868892 -0.932366 -0.315299 0.176863 220 3 122
-0.217366 -0.300537 -0.117211 0.113738 -0.925269 -0.361858 49 139 104
0.594138 -0.205256 -0.105776 0.113739 -0.925268 -0.36186 49 139 104
-0.710108 -0.0193903 0.288074 -0.322235 -0.162336 0.932637 49 139 104
1.62416 -0.118904 -0.522301 0.170356 -0.895333 -0.411532 163 1 65
-1.44027 -0.391133 0.0939503 -0.235931 -0.934491 0.266578 49 139 104
1.32733 0.132753 -0.128169 0.351556 0.723357 -0.594275 49 139 104
0.573091 -0.028704 0.26621 0.0248324 -0.18098 0.983173 49 139 104
-0.79125 0.108447 0.201093 -0.204334 0.706634 0.677433 49 139 104
0.465654 0.310456 0.0871539 -0.119066 0.975943 0.182644 49 139 104
0.0648659 0.19308 -0.457424 0.48778 0.830714 -0.268302 220 3 122
-0.199892 0.179299 0.797193 -0.0843164 0.978635 0.187523 220 3 122
-0.74647 -0.1573 -0.267615 0.00508557 -0.0608335 -0.998135 49 139 104
-0.0779916 0.212283 -0.383687 -0.0816022 0.989989 -0.115165 49 139 104
-1.4976 -0.382219 0.0608465 -0.309589 -0.93588 0.168178 49 139 104
-0.971076 0.131044 0.0983215 -0.120433 0.975774 0.182651 49 139 104
-0.278987 0.180757 -0.726604 -0.140657 0.988758 -0.0507208 220 3 122
-0.0211721 0.00516169 -1.61229 0.118583 -0.992931 -0.0050669 220 3 122
-1.13812 -0.412282 -0.118499 0.0858466 -0.920929 -0.380157 49 139 104
1.623 -0.138443 -0.138079 0.458773 -0.703618 -0.542632 171 36 184
0.567531 -0.21358 0.0800249 0.121342 -0.975869 0.181536 49 139 104
-0.0145273 0.0380957 -1.054 0.310239 -0.935026 0.171693 220 3 122
-0.175917 0.020805 1.03284 0.0197936 -0.985959 -0.165808 220 3 122
-0.117986 0.0337806 0.533398 0.12656 -0.991959 -0.000600632 220 3 122
-0.40573 0.190751 0.288387 -0.119123 0.966123 0.228946 49 139 104
-0.326723 -0.127012 0.280432 0.0454987 -0.348704 0.936128 220 3 122
0.0869568 0.0361361 1.40227 0.549954 -0.834635 -0.0305811 220 3 122
-1.50387 0.0502393 0.0926796 -0.312911 0.900625 0.301599 49 139 104
-1.60346 -0.315506 0.114503 -0.407357 -0.752419 0.517616 49 139 104
-0.0396519 0.0182851 2.03407 -0.901365 -0.290376 0.321283 220 3 122
1.62821 -0.134041 0.138506 0.461683 -0.747344 0.477833 171 36 184
-1.15002 0.109893 0.093326 -0.120432 0.975774 0.182649 49 139 104
1.36818 0.11781 0.121402 0.304152 0.736905 0.603707 163 1 65
-0.073309 0.00224035 -0.343685 0.132222 -0.780545 -0.610956 220 3 122
0.0218744 0.0142193 1.30589 0.211762 -0.974744 -0.0709299 220 3 122
-0.155898 0.0917746 -1.60558 -0.56992 0.818107 -0.076759 220 3 122
1.25081 0.21042 -0.0757117 0.479759 0.824941 -0.298836 49 139 104
0.289626 -0.179905 0.207698 0.0886988 -0.701966 0.706665 49 139 104
-1.20339 -0.376672 -0.183412 -0.0170911 -0.719378 -0.694408 49 139 104
-0.54381 -0.356991 -0.00477007 0.122943 -0.992414 -0.000592088 49 139 104
-0.377964 0.213542 0.0413978 -0.122941 0.992414 0.000592055 49 139 104
-0.147314 0.0307579 -0.616479 0.122942 -0.992414 -0.000592312 220 3 122
0.0805093 0.0375686 -1.36682 0.588816 -0.806125 0.0588094 220 3 122
-0.225557 0.0204512 -0.48113 0.122557 -0.990512 -0.0621813 220 3 122
0.0884783 0.0967563 1.92321 0.140635 0.987956 0.0645284 220 3 122
-0.96086 -0.389676 0.130849 0.115537 -0.925476 0.360756 49 139 104
0.635207 0.211786 -0.244322 -0.0339983 0.57119 -0.820113 49 139 104
-1.05311 0.0682574 -0.1903 -0.0886927 0.701925 -0.706707 49 139 104
0.658043 0.336351 0.0340492 -0.0660871 0.992124 0.106408 49 139 104
0.971924 -0.151815 0.120669 0.11599 -0.918847 0.377181 49 139 104
-0.166171 -0.00351607 1.33377 -0.0914048 -0.995631 0.0190686 220 3 122
-0.337145 -0.330183 -0.0378856 0.122554 -0.990512 -0.0621788 49 139 104
-0.21875 0.0194034 1.3358 -0.580025 -0.807244 0.109214 220 3 122
-1.29958 0.0588266 -0.160393 -0.118493 0.821506 -0.557752 49 139 104
-0.00616733 0.257902 0.126473 -0.104545 0.99402 0.0315328 49 139 104
-0.554358 0.10064 0.456752 -0.82928 0.344753 0.439819 220 3 122
-0.160075 0.0284372 0.624076 0.122943 -0.992414 -0.000591836 220 3 122
0.248078 -0.180889 -0.210102 0.085171 -0.701539 -0.707523 49 139 104
-1.17646 0.0965477 -0.119011 -0.117113 0.925258 -0.360808 49 139 104
-0.239264 0.191478 0.395758 -0.121712 0.9849 0.123117 220 3 122
1.46867 -0.125561 -0.372208 -0.345415 -0.933469 -0.0965563 163 1 65
0.0136564 -0.189198 -0.2264 0.0664341 -0.552736 -0.830704 49 139 104
-0.381068 0.202727 -0.24254 -0.121095 0.973655 -0.193214 49 139 104
1.44272 -0.187146 0.0887381 -0.255762 -0.802428 0.539161 171 36 184
-1.68586 -0.124672 -0.130596 -0.569987 0.105237 -0.814887 49 139 104
0.763438 -0.195039 -0.015861 0.122943 -0.992414 -0.000592611 49 139 104
-0.074439 0.0425012 -1.94134 -0.932809 0.290149 -0.213731 220 3 122
-0.516273 0.0634684 -0.534769 -0.843424 -0.36154 -0.397397 220 3 122
0.0838039 0.160067 1.0417 0.327809 0.944717 0.00718198 220 3 122
0.603107 0.0335504 0.272317 0.0107447 -0.0613884 0.998056 49 139 104
0.129764 0.0602569 -1.81331 0.933508 -0.283557 0.219451 220 3 122
-0.126872 0.0828965 1.73167 -0.846997 0.48552 0.216487 49 139 104
-0.0924285 0.205379 0.48256 -0.100036 0.99477 0.0206509 220 3 122
-1.6297 -0.326345 -0.043913 -0.523349 -0.843015 -0.124219 49 139 104
0.879109 0.00420972 -0.252446 0.168019 -0.188175 -0.967657 163 1 65
-1.08911 0.0398718 0.222091 -0.0851712 0.701537 0.707525 49 139 104
0.332374 0.191779 0.235479 -0.0564486 0.548465 0.834266 49 139 104
-0.717387 -0.0567277 -0.273004 -0.120902 -0.0540333 -0.991193 49 139 104
1.30496 0.189545 -0.0366015 0.481529 0.8688 -0.115395 49 139 104
1.72506 -0.122408 0.00610941 0.892042 0.434046 0.125954 171 36 184
1.56033 0.0855813 0.0223805 0.45982 0.866984 0.192107 49 139 104
-0.184647 0.203105 -0.356198 -0.122321 0.98497 -0.121951 49 139 104
0.87632 0.322885 -0.0340636 0.0647963 0.990318 -0.122769 49 139 104
-0.574928 0.188794 -0.0915116 -0.124321 0.992177 -0.0113979 49 139 104
0.972059 0.175625 0.219161 0.161432 0.395991 0.903953 163 1 65
-0.284378 0.0144701 -0.746124 0.0950379 -0.995463 -0.00468208 220 3 122
-1.55339 -0.132038 0.20894 -0.338462 0.152384 0.92856 49 139 104
0.543631 0.205938 -0.242242 -0.0628519 0.549238 -0.833299 49 139 104
-0.881478 0.147458 -0.0627343 -0.121342 0.975877 -0.181496 49 139 104
-0.931998 -0.293107 -0.23257 0.0654911 -0.545209 -0.835738 49 139 104
0.0410901 0.0953234 -1.92864 -0.0367073 0.996147 -0.079644 220 3 122
-0.165516 0.160383 0.916219 -0.104765 0.989373 0.100819 220 3 122
-0.912649 0.00176798 -0.249441 -0.0467431 0.358837 -0.932229 49 139 104
0.722756 0.233163 0.226858 0.0438007 0.58839 0.80739 49 139 104
-0.348463 0.00838845 -0.675871 0.0550341 -0.997564 -0.0428629 220 3 122
-0.0336024 0.12649 1.69351 -0.157697 0.986573 0.042479 220 3 122
-0.447381 -0.00511958 0.432125 -0.0484533 -0.972847 0.226319 220 3 122
-0.835642 0.131438 -0.139827 -0.12665 0.927375 -0.352045 49 139 104
-0.487766 0.0964227 0.608002 -0.849409 0.0189006 0.527397 220 3 122
0.0913948 0.12853 0.547223 0.949595 -0.307872 -0.059031 220 3 122
-0.489004 -0.339828 -0.101728 0.120435 -0.975762 -0.182711 49 139 104
0.11096 0.120336 1.08637 0.984793 0.173047 -0.0154318 220 3 122
-0.0175936 0.100064 1.86302 -0.249946 0.938001 0.24017 220 3 122
0.241505 0.214962 -0.224565 0.14022 0.741238 -0.656433 49 139 104
1.6908 -0.0817196 0.396991 0.808683 -0.564873 -0.164163 220 3 122
-1.72791 -0.0702671 0.0136123 -0.816731 0.576318 0.0284249 49 139 104
0.601779 0.332065 -0.0506342 -0.09609 0.992959 -0.0692685 49 139 104
-0.143235 0.0158204 -1.65104 -0.427896 -0.887311 -0.172004 220 3 122
1.03646 -0.161149 0.0212943 0.122862 -0.990548 0.0609963 49 139 104
-0.958777 0.139153 -0.0487592 -0.12286 0.990545 -0.0610472 49 139 104
0.34324 -0.245281 0.0513577 0.122864 -0.990547 0.0609974 49 139 104
-0.678838 0.17598 0.0844457 -0.126715 0.991865 0.0121625 49 139 104
-0.365421 0.00156554 -0.45561 0.121264 -0.990671 -0.0621783 220 3 122
-1.0054 0.0434814 0.2271 -0.0654862 0.5452 0.835745 49 139 104
1.64564 0.0169926 0.0366082 0.749835 0.645093 0.146976 49 139 104
-0.83421 -0.0588348 0.274591 -0.0345834 0.0534391 0.997972 49 139 104
-0.466037 -0.342398 0.0783975 0.121339 -0.975869 0.181537 49 139 104
-0.145611 0.158266 -1.03604 -0.122944 0.992414 -0.000159982 220 3 122
-0.317982 -0.033983 -0.336822 0.0964934 -0.790874 -0.604325 220 3 122
0.0666061 0.0717236 -0.696121 0.560601 -0.827854 0.0196096 220 3 122
-0.0629241 0.0408032 0.639054 0.131386 -0.991322 -0.00418267 220 3 122
-0.538717 0.110868 -0.465294 -0.684084 0.633971 -0.360707 220 3 122
-0.115673 0.0346948 -0.891551 0.127352 -0.991828 0.00766485 220 3 122
0.192285 -0.200897 0.199065 0.0886956 -0.701967 0.706665 49 139 104
0.149801 -0.256342 0.117196 0.115536 -0.925477 0.360755 49 139 104
1.31921 -0.13198 0.133227 -0.278277 -0.86515 0.417226 171 36 184
1.65349 -0.0064513 -0.0932512 0.806893 0.540992 -0.237172 49 139 104
-0.91239 -0.239729 0.263724 0.0467495 -0.35888 0.932212 49 139 104
-0.0465293 0.0430538 -0.943777 0.147215 -0.988994 0.0147923 220 3 122
-0.0520063 0.125578 1.59512 -0.124303 0.9922 0.00942376 220 3 122
0.356213 0.139708 0.261099 -0.0414409 0.358662 0.932547 49 139 104
-0.293825 0.182399 -0.441356 -0.122979 0.992329 -0.0126106 220 3 122
0.913756 0.321478 -0.00446583 0.0886016 0.995333 -0.0382362 49 139 104
-0.0135595 0.129227 1.67087 -0.0661168 0.997555 0.022639 220 3 122
-0.750362 0.157233 -0.106119 -0.154229 0.933048 -0.325016 49 139 104
1.40933 0.0805501 -0.149707 0.205974 0.656084 -0.726036 163 1 65
-1.56704 -0.257769 0.185913 -0.393212 -0.345054 0.852245 49 139 104
-1.08917 -0.376795 0.182124 0.0955963 -0.830754 0.54837 49 139 104
-0.0117772 0.00316138 -0.330172 0.147491 -0.740436 -0.655744 49 139 104
0.978143 0.0807962 -0.23997 0.164272 0.0242006 -0.986118 163 1 65
-1.64338 -0.0743562 -0.140633 -0.416457 0.530409 -0.738397 49 139 104
0.536141 0.0927075 0.271571 -0.0034807 0.0611859 0.99812 49 139 104
-1.59119 0.0284983 0.0152264 -0.402361 0.915435 -0.00916484 49 139 104
-1.66172 -0.124407 0.157485 -0.516578 0.100137 0.850364 49 139 104
0.0371198 -0.00464013 1.85114 0.0303869 -0.974581 -0.221963 220 3 122
1.01627 0.106581 0.22805 0.116196 0.136672 0.983778 163 1 65
-0.229596 -0.276404 0.171312 0.104071 -0.829223 0.549143 49 139 104
-0.231647 -0.194959 0.246345 0.0705706 -0.553213 0.830045 49 139 104
0.0343371 0.0159808 -1.53086 0.315164 -0.949037 -0.00106038 220 3 122
0.0631414 0.16636 -0.941746 0.327666 0.944793 -0.000546263 220 3 122
-0.297281 -0.317324 0.100387 0.121342 -0.975868 0.181541 49 139 104
-0.0456646 0.249803 -0.202798 -0.0977331 0.985099 -0.141522 49 139 104
0.364342 -0.144198 -0.228129 0.0654915 -0.54521 -0.835737 49 139 104
-0.037487 0.0447055 -0.755961 0.135201 -0.990818 -0.000622084 220 3 122
-0.307688 -0.245594 -0.212847 0.0851682 -0.701538 -0.707524 49 139 104
-0.289915 0.182412 -0.502092 -0.127219 0.991875 0.000598933 220 3 122
-1.69363 -0.219299 0.123104 -0.606939 -0.336298 0.720089 49 139 104
-0.328375 0.112835 1.00467 -0.580575 0.808595 0.0954263 220 3 122
-0.0855457 0.24218 -0.227531 -0.118495 0.984966 -0.125702 49 139 104
0.543398 0.322861 -0.0720906 -0.118273 0.975702 -0.184439 49 139 104
-0.709359 0.00820932 -0.278417 -0.422185 0.107094 -0.900161 49 139 104
-0.487704 0.199966 0.0111529 -0.122942 0.992414 0.000592349 49 139 104
-0.215584 -0.312638 -0.0667108 0.120432 -0.975763 -0.182709 49 139 104
0.01993 -0.00745194 -1.85805 0.0541517 -0.976599 0.208139 220 3 122
0.232691 -0.0073329 -0.27524 0.0708 -0.111165 -0.991277 49 139 104
-0.00761414 0.242824 -0.251749 -0.0230232 0.970199 -0.241213 49 139 104
1.02473 0.299408 -0.0586505 0.18926 0.967554 -0.167394 49 139 104
-0.433005 -0.132059 -0.278561 0.0480851 -0.424838 -0.903992 220 3 122
-0.523963 -0.354412 -0.0201317 0.122556 -0.990512 -0.0621764 49 139 104
0.64258 -0.128136 -0.214876 0.0879867 -0.700857 -0.707855 49 139 104
-0.50787 0.184447 -0.248384 -0.174872 0.963708 -0.20171 49 139 104
-0.0964423 -0.000150309 1.59288 -0.0630676 -0.997155 0.0412777 220 3 122
-0.217894 0.0218298 -0.513454 0.122902 -0.992334 -0.0129523 220 3 122
1.46529 -0.122345 0.342341 -0.342473 -0.937499 0.0617026 163 1 65
-1.69529 -0.0434651 -0.0533579 -0.689672 0.691009 -0.216469 49 139 104
0.104509 -0.200821 -0.207622 0.0851715 -0.701539 -0.707523 49 139 104
-1.71297 -0.251598 -0.0392583 -0.755864 -0.635349 -0.158118 49 139 104
-0.755752 -0.324008 0.195765 0.0887002 -0.701967 0.706665 49 139 104
-0.452908 0.0139245 -0.576788 -0.31305 -0.939086 -0.141836 220 3 122
-0.17875 0.0607268 1.5858 -0.965959 -0.0703308 0.248953 220 3 122
-0.463289 0.146543 0.56763 -0.45335 0.864182 0.21832 220 3 122
-0.439192 0.205391 0.148194 -0.122901 0.992335 0.0129021 49 139 104
0.0371761 0.130926 -1.54319 0.0741073 0.99725 0.000102547 220 3 122
0.0882811 0.157746 0.924909 0.707916 0.706295 -0.00156208 220 3 122
-0.248315 0.140022 -1.08874 -0.323976 0.945775 -0.0234235 220 3 122
0.0911146 0.113115 0.442045 0.738572 -0.620539 0.263521 220 3 122
-0.310876 0.0102964 0.585047 0.0876415 -0.996129 0.00674404 220 3 122
-0.604808 -0.187075 -0.261842 0.00833614 -0.21275 -0.977071 220 3 122
0.96397 -0.0817791 -0.208457 0.0970749 -0.456851 -0.88423 163 1 65
-0.163556 0.00789919 -1.49694 -0.295355 -0.948116 -0.11765 220 3 122
-0.137544 -0.00139314 -1.47962 -0.0486547 -0.996719 -0.0646793 220 3 122
-0.657421 0.0228671 0.314535 -0.501531 -0.0739358 0.861974 49 139 104
0.104996 0.109765 -0.792929 0.859211 -0.511619 -0.00150639 220 3 122
1.17138 -0.0309455 0.198865 0.239045 -0.248461 0.938682 163 1 65
-0.900985 -0.320256 -0.210239 0.0851744 -0.70154 -0.707521 49 139 104
0.0237016 0.263343 -0.0288171 -0.122941 0.992414 0.000591969 49 139 104
-0.777925 -0.0687878 -0.268422 -0.0416265 0.0278983 -0.998744 49 139 104
-0.0774519 -0.000353963 -1.57314 0.0561649 -0.998347 -0.0121937 220 3 122
0.0916073 0.0506504 -1.31336 0.610699 -0.787124 0.0864969 220 3 122
-0.127269 0.0324266 0.510101 0.129095 -0.991563 0.0117541 220 3 122
-0.952537 -0.404979 -0.0593239 0.120433 -0.975762 -0.182715 49 139 104
0.720505 0.0752261 0.271236 0.0203435 0.0192285 0.999608 49 139 104
-0.31216 0.221754 -0.0581662 -0.122941 0.992414 0.000589766 49 139 104
-0.00794633 0.0968929 1.88798 -0.163184 0.969627 0.182194 220 3 122
-0.967464 0.0568128 0.219937 -0.0851731 0.701537 0.707525 49 139 104
0.304748 0.283722 0.114494 -0.113735 0.925254 0.361897 49 139 104
1.47347 0.119096 0.0371664 0.284744 0.941387 0.18086 49 139 104
0.640925 -0.0413714 0.262165 0.0248323 -0.180981 0.983173 49 139 104
-0.142515 0.0310485 -0.90542 0.124027 -0.99171 0.0335816 220 3 122
0.0705078 0.0863592 0.594892 0.680273 -0.714271 -0.164457 220 3 122
1.55232 -0.137892 -0.234016 0.165683 -0.986177 0.00195571 163 1 65
1.22133 -0.0410174 -0.196614 -0.00377233 -0.277368 -0.960756 163 1 65
-0.397504 -0.335204 -0.0661079 0.120435 -0.975763 -0.182708 49 139 104
-1.2239 0.0896388 0.130287 -0.113733 0.925253 0.3619 49 139 104
-0.362613 0.00619808 -0.628457 0.0419193 -0.99889 -0.0214978 220 3 122
0.00861054 0.0571627 -0.546595 0.296116 -0.954961 0.0191111 220 3 122
-0.157037 -0.0376684 -0.313743 0.0732028 -0.606588 -0.791639 220 3 122
-0.258559 0.0100285 -0.419625 0.120378 -0.975366 -0.184854 220 3 122
-0.454782 0.0306215 0.612595 -0.589949 -0.759944 0.272845 220 3 122
0.0898194 -0.252518 0.146215 0.115537 -0.925476 0.360755 49 139 104
-1.6284 -0.328754 0.0260628 -0.509014 -0.849589 0.138211 49 139 104
-0.0812228 0.164664 1.13354 -0.118548 0.992905 0.00932011 220 3 122
0.102263 0.145176 0.453256 0.945334 -0.215882 0.244415 220 3 122
1.4922 0.108616 -0.0519375 0.30755 0.93001 -0.201233 49 139 104
-1.30268 -0.157599 -0.265604 -0.0874712 -0.00883847 -0.996128 49 139 104
-0.53727 0.193844 -0.0201957 -0.122944 0.992413 0.000591499 49 139 104
-1.50832 -0.0171464 0.17964 -0.307838 0.652281 0.692651 49 139 104
-1.08397 0.0958209 0.155301 -0.10134 0.828927 0.5501 49 139 104
1.5023 0.0418988 -0.172693 0.145497 0.835496 -0.529885 163 1 65
-1.72025 -0.173011 -0.0983983 -0.750451 -0.161956 -0.640776 49 139 104
0.414055 -0.118225 0.242158 0.0696461 -0.54566 0.835108 49 139 104
-0.138125 -0.281065 0.145983 0.115537 -0.925476 0.360757 49 139 104
-0.331076 -0.100635 0.292379 0.0548849 -0.425133 0.903466 220 3 122
0.927438 0.0975892 -0.247916 0.209637 0.0962044 -0.973035 163 1 65
0.134543 0.148 0.354815 0.922963 0.107805 0.369482 49 139 104
-0.530047 0.194756 -0.0493977 -0.122943 0.992414 0.000591363 49 139 104
-0.348437 -0.198008 0.252513 0.0527226 -0.407524 0.911671 49 139 104
-0.270181 0.00300914 0.39962 0.114779 -0.919022 0.377128 49 139 104
-0.485576 0.000825133 -0.45302 -0.297714 -0.936927 -0.183124 220 3 122
0.090854 -0.271099 0.0894415 0.121341 -0.975869 0.181539 49 139 104
-0.11014 0.203814 -0.565324 -0.0717352 0.996607 -0.0403668 220 3 122
-0.30544 0.11683 1.07031 -0.508658 0.835399 0.20827 220 3 122
0.799402 0.233757 -0.220203 0.128909 0.59722 -0.791651 49 139 104
-0.484151 0.181571 0.284917 -0.127957 0.964485 0.231073 49 139 104
0.0911227 0.149253 -0.495503 0.928468 0.360887 -0.087791 220 3 122
-0.440114 0.162055 0.486142 -0.157726 0.986704 0.0392253 220 3 122
-0.169373 -0.0055845 1.19852 -0.0393549 -0.999216 -0.00438118 220 3 122
0.0895864 0.114435 -1.55228 0.707889 0.706322 -0.00156057 220 3 122
-0.898114 -0.205039 0.270913 0.0248342 -0.180981 0.983173 49 139 104
0.0337044 0.0216901 -1.25954 0.466863 -0.881439 0.0714471 220 3 122
-1.45826 0.0667413 -0.0623017 -0.266921 0.930697 -0.250111 49 139 104
-0.235029 0.145518 -1.01902 -0.138899 0.989836 -0.0305239 220 3 122
-1.16072 0.113022 0.069556 -0.120437 0.975773 0.182654 49 139 104
1.04267 -0.0255782 0.220251 0.0551539 -0.184395 0.981303 163 1 65
0.927364 -0.0424728 -0.231379 0.117663 -0.315151 -0.941719 163 1 65
-0.718355 -0.0448079 0.284865 -0.158776 -0.0324961 0.98678 49 139 104
-0.0902437 0.249205 0.00999543 -0.122942 0.992414 0.000589845 49 139 104
0.346148 -0.246753 0.015905 0.122944 -0.992413 -0.000589889 49 139 104
-0.926865 0.140821 -0.0680791 -0.121343 0.975877 -0.181495 49 139 104
1.01571 -0.00532405 -0.230545 0.120682 -0.199435 -0.972451 163 1 65
-0.113937 0.03185 -1.82547 -0.741661 -0.656678 -0.136793 220 3 122
1.73514 -0.144814 0.0120241 0.891778 0.434651 0.125741 171 36 184
-0.0237991 0.045625 0.779485 0.135699 -0.990746 -0.00296667 220 3 122
0.873748 -0.110003 -0.199003 0.107042 -0.671403 -0.733322 49 139 104
1.09417 -0.0555719 -0.204655 0.152672 -0.379318 -0.912584 163 1 65
-1.63477 -0.0106737 -0.0749208 -0.501336 0.797685 -0.335201 49 139 104
-0.14422 0.242241 0.123701 -0.122891 0.992336 0.0129447 49 139 104
0.0928753 0.180727 0.437069 0.644181 0.745871 0.16943 163 1 65
1.59822 -0.00226113 0.237114 0.199885 0.971864 0.124608 163 1 65
-1.07521 -0.338725 0.221131 0.0844269 -0.702283 0.706874 49 139 104
1.54666 0.0477105 0.13903 0.368025 0.82749 0.42405 49 139 104
0.151597 -0.0270585 -0.280232 0.141863 -0.308033 -0.940739 49 139 104
-1.54108 -0.226094 -0.200668 -0.315713 -0.266492 -0.910663 49 139 104
0.299508 0.27376 -0.140685 -0.104021 0.932833 -0.344967 49 139 104
0.106117 0.202967 0.324773 0.474157 0.838894 0.267269 49 139 104
0.233938 0.0291394 0.275903 0.154911 -0.119644 0.980657 49 139 104
-1.09251 -0.271825 -0.252055 0.0410609 -0.35904 -0.932419 49 139 104
-0.125565 -0.000259387 1.4871 -0.0603806 -0.997265 0.0426163 220 3 122
1.37132 0.0780172 0.163441 0.0812467 0.7001 0.709407 163 1 65
-0.0766135 0.250749 0.102241 -0.115739 0.993278 0.00191875 49 139 104
0.872345 -0.149706 0.151726 0.1094 -0.806045 0.581655 49 139 104
1.55562 -0.15812 0.142704 0.153667 -0.811576 0.563677 171 36 184
0.902477 -0.0939064 0.205816 0.158617 -0.628312 0.761619 49 139 104
0.0547206 0.168489 1.10437 0.321325 0.946386 0.0332105 220 3 122
-0.685833 -0.369562 0.0792827 0.12134 -0.975869 0.181537 49 139 104
-0.150836 0.120096 -1.39773 -0.349337 0.912734 -0.211848 220 3 122
0.116887 0.0763105 -2.05597 0.430708 0.813686 -0.390392 220 3 122
-0.233459 0.183675 0.750512 -0.0936823 0.987607 0.125919 220 3 122
-0.385889 0.212616 -0.0521101 -0.122943 0.992414 0.000591711 49 139 104
0.723365 -0.0581118 0.251431 0.0549593 -0.360183 0.931261 49 139 104
-0.184802 0.195443 -0.492848 -0.122942 0.992414 0.000592013 220 3 122
1.23221 0.127054 -0.180866 0.276905 0.360382 -0.890757 163 1 65
0.803566 -0.133383 -0.187684 0.0975306 -0.681397 -0.725387 49 139 104
-0.189422 0.0248233 0.587904 0.122943 -0.992414 -0.000591961 220 3 122
0.119198 0.0778741 -1.78661 0.867057 0.47592 0.147353 220 3 122
-1.10837 -0.304125 0.247362 0.0593938 -0.546746 0.835189 49 139 104
0.931862 0.310648 0.0637035 0.117284 0.967288 0.224941 49 139 104
0.479043 -0.229441 0.0350466 0.122862 -0.990547 0.0609967 49 139 104
-0.0519521 0.0426582 0.581568 0.181732 -0.983339 -0.00433757 220 3 122
1.51865 -0.140746 -0.247412 0.00141953 -0.999381 -0.0351491 163 1 65
-0.0653519 0.168083 -0.9307 -0.102629 0.99469 -0.00771023 220 3 122
-0.310485 0.080061 1.12469 -0.961484 -0.064925 0.267081 220 3 122
1.60771 -0.0253159 0.527373 -0.0548225 0.889611 0.453417 163 1 65
0.333443 0.158315 -0.252625 -0.0190713 0.366009 -0.930416 49 139 104
-0.0323208 0.117813 -1.78384 -0.222742 0.946026 -0.235417 220 3 122
-0.999753 -0.404223 0.102786 0.121338 -0.975869 0.181539 49 139 104
-0.132826 0.206465 0.38107 -0.121708 0.984886 0.123235 220 3 122
-0.020435 0.00536009 -1.29769 0.152652 -0.988178 0.0142035 220 3 122
-1.38289 0.0846959 -0.0567298 -0.179307 0.971517 -0.154935 49 139 104
1.55112 0.0429074 -0.146746 0.339087 0.826602 -0.449165 49 139 104
-0.507191 -0.162873 -0.269317 -0.00855804 -0.333185 -0.942823 220 3 122
1.63921 -0.0166832 0.238165 0.406366 0.909188 -0.0907987 220 3 122
-0.31582 0.0825309 -1.11743 -0.850796 0.487964 -0.195031 220 3 122
1.53815 -0.0100718 0.328675 -0.0488519 0.995669 0.0790962 163 1 65
-0.0143698 -0.0715193 0.286388 0.0646961 -0.423469 0.903597 220 3 122
-0.695344 0.147529 -0.185247 -0.278916 0.836695 -0.471325 49 139 104
-1.36246 0.0350043 -0.176219 -0.171784 0.705281 -0.6878 49 139 104
-0.0568028 -0.287847 0.0981068 0.12134 -0.975869 0.181539 49 139 104
-0.0955866 -0.283484 -0.122538 0.113735 -0.92527 -0.361855 49 139 104
-0.987829 -0.111517 0.276265 -0.00509182 0.0608823 0.998132 49 139 104
-0.414561 0.130307 0.716066 -0.719122 0.631746 0.289416 220 3 122
-0.916725 -0.272996 0.251134 0.0467455 -0.358878 0.932213 49 139 104
-0.156672 -0.00396361 -1.17338 -0.0150289 -0.997826 0.0641689 220 3 122
-0.0810524 0.250287 0.073617 -0.115739 0.993278 0.00191875 49 139 104
-1.51044 -0.27451 -0.193468 -0.322724 -0.453294 -0.830887 49 139 104
0.0787454 0.0290512 1.59894 0.548354 -0.836245 -0.00160754 220 3 122
0.0799832 -0.0109359 -1.95265 0.462973 -0.875587 0.137855 49 139 104
-1.52389 -0.19258 0.220956 -0.316547 -0.114272 0.941669 49 139 104
-0.582739 0.0884222 -0.400541 -0.868703 0.12331 -0.479738 220 3 122
0.157015 -0.224363 -0.174297 0.101339 -0.828919 -0.550113 49 139 104
0.47326 0.316174 0.0580583 -0.122062 0.99057 0.0622281 49 139 104
-0.184207 0.0366517 1.54013 -0.928841 -0.334533 0.159196 171 36 184
-0.257884 -0.175078 0.257527 0.0527211 -0.407525 0.911671 49 139 104
0.02532 0.26344 -0.00345218 -0.122926 0.992397 0.00608047 49 139 104
1.44706 -0.127888 0.258693 -0.420062 -0.896377 0.141618 163 1 65
-0.194144 0.19433 -0.567126 -0.122942 0.992414 0.000591964 220 3 122
1.53938 -0.137429 0.291054 0.129491 -0.991555 -0.00712701 163 1 65
-0.253213 -0.00735494 -0.363956 0.112896 -0.918797 -0.378241 220 3 122
-0.598044 0.180675 -0.165059 -0.204293 0.974703 -0.0906598 49 139 104
-0.0465884 0.170367 -0.887744 -0.102644 0.99468 -0.00876883 220 3 122
-0.789378 0.157993 0.0928765 -0.185551 0.975387 0.119125 49 139 104
-1.46793 0.0277649 0.156777 -0.316027 0.745059 0.587379 49 139 104
-1.5302 -0.322829 0.156932 -0.386158 -0.661726 0.642652 49 139 104
-0.830193 -0.365681 0.150328 0.104077 -0.829222 0.549143 49 139 104
0.0329552 0.242221 0.247021 0.0726719 0.969341 0.234728 49 139 104
-0.0985829 0.0357476 0.902269 0.119863 -0.992781 -0.00442196 220 3 122
0.0194873 0.19778 -0.555774 0.244944 0.95922 -0.141067 220 3 122
0.11005 0.100569 1.16121 0.947691 -0.318515 0.0207509 220 3 122
1.64434 -0.121363 0.453368 0.246899 -0.968602 0.0291883 163 1 65
0.0222153 0.131719 1.57109 0.0741047 0.99725 0.000100443 220 3 122
1.58506 -0.0725619 -0.569819 -0.10184 0.0509939 -0.993493 163 1 65
0.96367 0.107832 -0.239528 0.15008 0.106547 -0.982916 163 1 65
-1.23348 -0.0775846 -0.260094 -0.0441255 0.181998 -0.982309 49 139 104
-1.70002 -0.272019 0.0455552 -0.716148 -0.668095 0.201943 49 139 104
-0.785929 0.14934 0.134679 -0.24205 0.931168 0.272651 49 139 104
1.07325 -0.154765 -0.053553 0.121462 -0.990781 -0.059999 49 139 104
-0.735574 0.163417 -0.0829511 -0.139415 0.980025 -0.141823 49 139 104
-0.371455 0.172424 -0.45511 -0.143415 0.989507 -0.0175654 220 3 122
1.62773 -0.195499 0.0806936 0.248223 -0.435477 0.865301 171 36 184
1.70485 -0.0822336 0.501573 0.938133 -0.345304 -0.0259252 163 1 65
-0.192749 0.0243925 0.619215 0.122943 -0.992414 -0.000591012 220 3 122
1.5515 -0.0273346 0.51022 -0.240511 0.942149 0.233476 163 1 65
-0.299963 0.18008 0.671243 -0.132484 0.991082 0.0142803 220 3 122
-0.5282 0.112884 0.497674 -0.83404 0.457489 0.308352 220 3 122
-0.924689 0.120843 0.144877 -0.117697 0.924771 0.361865 49 139 104
-0.403764 0.035918 0.730618 -0.426281 -0.86069 0.278382 220 3 122
1.13081 0.253896 0.105217 0.287222 0.849074 0.443369 49 139 104
-1.0618 -0.19744 -0.266775 0.0050867 -0.0608355 -0.998135 49 139 104
1.22329 0.187302 -0.142622 0.425784 0.633731 -0.645827 49 139 104
-0.809138 0.126776 0.170645 -0.245405 0.812655 0.528553 49 139 104
0.252993 0.268918 -0.145441 -0.0307375 0.949227 -0.313087 49 139 104
-0.0246724 0.161286 1.25941 0.0642555 0.989704 0.127898 220 3 122
-0.808152 -0.162325 0.274673 0.00933618 -0.0695861 0.997532 49 139 104
-1.54414 0.0300121 -0.0867942 -0.305753 0.90125 -0.307023 49 139 104
-0.321772 0.17554 -0.682569 -0.156671 0.98701 -0.035584 220 3 122
-0.158492 0.240701 0.0916737 -0.122942 0.992414 0.000591999 49 139 104
-0.0226653 0.00350155 1.78018 0.0207156 -0.998797 -0.0444566 220 3 122
-0.635411 -0.282684 0.221709 0.0886975 -0.701966 0.706665 49 139 104
1.65114 -0.352568 -0.0141721 -0.378306 -0.914698 0.142172 171 36 184
0.575363 -0.0653242 0.256258 0.0467501 -0.358879 0.932212 49 139 104
-0.908629 -0.0535657 0.271846 -0.0199346 0.180405 0.98339 49 139 104
-0.353425 0.139593 -0.80934 -0.432126 0.866407 -0.250213 220 3 122
1.62581 -0.0970077 0.554638 0.133841 -0.607387 0.78305 163 1 65
0.803204 0.0120293 0.265816 0.116067 -0.183498 0.976144 49 139 104
0.670342 0.321378 0.109469 0.0123804 0.928075 0.372188 49 139 104
0.548695 -0.217234 -0.0724473 0.120433 -0.975763 -0.182708 49 139 104
0.910164 -0.159968 -0.121097 0.117385 -0.92077 -0.372027 49 139 104
-0.210427 0.197049 0.3797 -0.121712 0.9849 0.123118 220 3 122
-0.1406 0.203073 -0.404224 -0.11985 0.991597 -0.0487019 220 3 122
-0.788453 -0.384731 0.0662958 0.122869 -0.990546 0.0610019 49 139 104
-0.235678 0.110106 -1.2777 -0.698776 0.693654 -0.174803 220 3 122
0.909942 0.118521 -0.249548 0.199314 0.231189 -0.952274 163 1 65
1.39849 -0.0206218 -0.256428 -0.468047 0.6936 -0.547587 163 1 65
-0.416713 -0.245789 -0.223164 0.0664349 -0.552737 -0.830703 49 139 104
-0.3879 0.168537 -0.527491 -0.15512 0.986645 -0.0496916 220 3 122
-1.37115 -0.340398 0.200761 -0.200374 -0.694472 0.691056 49 139 104
1.5353 0.0746714 -0.0975528 0.315346 0.858111 -0.405218 49 139 104
-0.803703 -0.368383 0.135141 0.115538 -0.925476 0.360756 49 139 104
1.63309 -0.336121 -0.0307328 -0.411966 -0.784971 -0.462715 171 36 184
1.52778 0.0121921 -0.216446 0.193797 0.876642 -0.440389 163 1 65
-0.0935305 0.189133 -0.7163 0.114144 0.980181 -0.161917 220 3 122
0.0593299 0.179624 0.585141 0.276636 0.958245 0.0723839 220 3 122
0.112941 0.00798025 -1.97314 0.649485 -0.758053 0.0593721 220 3 122
-0.0474306 0.126223 1.57048 -0.116093 0.993227 0.0047534 220 3 122
-0.0912932 0.084366 -1.82313 -0.465847 0.846275 -0.258468 220 3 122
0.956449 0.172442 -0.225942 0.133158 0.412774 -0.901048 163 1 65
1.51281 -0.138197 -0.322685 -0.0571121 -0.997792 -0.0339021 163 1 65
0.17303 -0.249098 0.12834 0.115537 -0.925477 0.360754 49 139 104
-0.4255 -0.269348 0.20861 0.0887012 -0.701965 0.706667 49 139 104
-0.730232 -0.120353 0.278354 -0.0174767 -0.0768469 0.99689 49 139 104
-0.0295118 0.0461617 -0.614854 0.15259 -0.988188 0.0141542 220 3 122
-0.831762 -0.0491336 -0.265696 -0.0290288 0.177738 -0.98365 49 139 104
0.832184 -0.160852 0.14247 0.122092 -0.920123 0.372111 49 139 104
-0.0596275 0.100306 -1.8226 -0.250183 0.919215 -0.304059 220 3 122
-1.46697 -0.046819 -0.202911 -0.307349 0.476081 -0.823944 49 139 104
0.644144 0.128286 0.269222 -0.0104339 0.191198 0.981496 49 139 104
1.20336 0.233164 -0.0844388 0.427438 0.825782 -0.367941 49 139 104
1.48331 -0.176104 0.120584 -0.194952 -0.812173 0.549881 171 36 184
1.00231 -0.164773 -0.0328939 0.122566 -0.990551 -0.0615402 49 139 104
0.67449 0.237636 -0.227268 -0.00549902 0.581515 -0.813517 49 139 104
-1.57184 -0.309753 0.146551 -0.366962 -0.666649 0.648782 49 139 104
0.0452864 0.172163 -0.744663 0.11995 0.992111 -0.0364282 220 3 122
-0.0435553 -0.00984012 -1.93523 -0.48425 -0.87431 0.0329197 220 3 122
-0.0186769 0.126936 1.72184 -0.0630491 0.996125 0.0613206 220 3 122
0.207059 0.0434099 0.281049 0.148718 -0.0375705 0.988166 49 139 104
-0.178472 0.0268756 -0.578965 0.122942 -0.992414 -0.000592319 220 3 122
0.251924 0.00958494 0.274203 0.0500762 -0.0355086 0.998114 49 139 104
-0.184503 -0.00122571 -1.33278 -0.325609 -0.941333 -0.0887176 220 3 122
0.485505 -0.173088 -0.189256 0.0851717 -0.701539 -0.707523 49 139 104
-0.365045 0.117504 0.853495 -0.700041 0.651299 0.292836 220 3 122
-0.0997144 -0.00536712 1.34408 0.0596354 -0.99819 0.00777671 220 3 122
-0.867558 -0.0884088 0.275586 -0.00935499 0.0580628 0.998269 49 139 104
-1.39901 -0.292689 0.22801 -0.214713 -0.403928 0.889236 49 139 104
-0.885469 -0.0658062 0.274042 -0.0115667 0.0596784 0.998151 49 139 104
1.1506 0.121199 -0.207378 0.274267 0.300647 -0.913449 163 1 65
-0.225921 0.099246 -1.34187 -0.512416 0.801273 -0.308856 220 3 122
0.396558 0.300155 0.0966552 -0.120434 0.975774 0.182648 49 139 104
-1.74955 -0.137062 0.0407649 -0.979867 0.0607252 0.190194 49 139 104
-0.205288 -0.13834 0.270311 0.0454995 -0.348703 0.936128 220 3 122
-0.508841 -0.285398 -0.197595 0.0851761 -0.701538 -0.707523 49 139 104
0.116656 0.078513 1.55903 0.992411 0.122944 -0.00244138 220 3 122
1.23636 0.0712793 -0.196738 0.223811 0.213751 -0.950905 163 1 65
0.455917 0.0623757 -0.272319 -0.00249528 0.000284017 -0.999997 49 139 104
-0.287888 0.0233269 1.01217 -0.360684 -0.928849 0.084533 220 3 122
-0.164083 0.0247443 -0.435748 0.120378 -0.975366 -0.184853 220 3 122
0.730238 -0.00838981 -0.265848 0.0335344 -0.186481 -0.981886 49 139 104
-0.05002 0.215174 -0.379789 -0.0940965 0.990241 -0.102801 49 139 104
-0.545524 -0.222882 -0.246691 0.0413294 -0.386464 -0.921378 49 139 104
-1.65618 -0.281183 -0.107805 -0.538414 -0.670568 -0.510343 49 139 104
-0.0236304 0.00459927 -1.42047 0.135151 -0.990825 -0.000622028 220 3 122
-1.46548 -0.0129371 -0.183889 -0.307349 0.476081 -0.823944 49 139 104
-0.417884 0.148665 -0.643802 -0.424352 0.895307 -0.135466 220 3 122
1.32333 0.0376863 -0.197413 -0.162824 0.428596 -0.888703 163 1 65
-0.0999882 0.114665 1.64338 -0.256717 0.963671 0.073723 220 3 122
1.47308 -0.137543 -0.247432 -0.185713 -0.980074 -0.0704622 163 1 65
1.61429 -0.0506886 -0.565987 -0.154387 0.579463 -0.800242 163 1 65
-0.13885 -0.298855 -0.089743 0.120439 -0.975763 -0.182707 49 139 104
-0.601077 0.0308474 -0.364179 -0.742453 -0.334028 -0.58068 220 3 122
0.0522662 -0.206732 -0.20805 0.0851719 -0.701539 -0.707523 49 139 104
-0.426437 -0.0226176 -0.377806 0.101267 -0.917493 -0.384644 220 3 122
-0.249338 0.048088 -1.30744 -0.888994 -0.384867 -0.248129 220 3 122
1.6924 -0.0922542 0.0684526 0.865295 0.165821 0.473041 171 36 184
0.381768 0.0461176 -0.272268 0.00232217 0.000767378 -0.999997 49 139 104
-0.95321 0.111048 0.15645 -0.103616 0.828713 0.549999 49 139 104
0.0915945 0.14667 1.15606 0.634779 0.768373 0.0815989 220 3 122
-0.00649157 0.0518897 0.576651 0.282482 -0.959097 -0.0183708 220 3 122
1.31075 -0.162338 -0.0359648 -0.229023 -0.948151 -0.220359 171 36 184
1.5781 -0.128554 -0.4999 0.0697142 -0.974789 -0.211956 220 3 122
-1.59231 -0.289343 0.152538 -0.380919 -0.576679 0.722732 49 139 104
-0.183476 0.0257504 1.50113 -0.585349 -0.805462 0.0927254 220 3 122
-0.518428 -0.210887 -0.250648 0.0279942 -0.395324 -0.918115 49 139 104
0.745566 0.305041 0.138997 0.103566 0.907823 0.406364 49 139 104
-0.454575 0.190213 -0.258895 -0.123342 0.973177 -0.194199 49 139 104
-1.53241 -0.0793456 -0.192946 -0.299959 0.340367 -0.891165 49 139 104
0.0237058 0.142498 1.35495 0.0468687 0.991848 0.118494 220 3 122
-0.631697 0.0161333 0.331767 -0.601157 -0.233909 0.764132 49 139 104
-0.403156 0.043754 0.762183 -0.547293 -0.796577 0.256779 220 3 122
0.0784235 0.103741 -0.526977 0.747527 -0.663908 0.0207145 220 3 122
1.62635 -0.0116568 0.375334 0.0839146 0.996225 0.0222164 163 1 65
-0.311775 0.0131394 0.704254 -0.0378535 -0.998988 0.0242951 220 3 122
1.12455 0.279611 -0.0301082 0.333 0.931036 -0.149277 49 139 104
-0.958053 -0.0553441 -0.263564 -0.0248392 0.181018 -0.983166 49 139 104
-0.083108 0.0210528 -0.380327 0.147201 -0.914204 -0.377575 220 3 122
1.61257 -0.128339 -0.352916 0.23825 -0.968832 0.06784 163 1 65
-0.388784 0.144615 -0.72189 -0.442613 0.874151 -0.199883 220 3 122
-1.41268 -0.170491 0.256987 -0.234237 -0.0773711 0.969096 49 139 104
-0.0806624 0.246087 -0.201472 -0.113926 0.985504 -0.125709 49 139 104
0.0960181 0.142993 -1.12003 0.726952 0.684371 -0.0563612 220 3 122
0.0494572 0.0760008 0.44477 0.556614 -0.811574 0.177561 220 3 122
-0.152977 0.188398 -0.747343 0.0516601 0.983258 -0.174743 220 3 122
-0.138927 0.0318173 -0.650635 0.122943 -0.992414 -0.000590936 220 3 122
-0.434687 0.16027 -0.505711 -0.214686 0.976378 -0.0243965 220 3 122
-1.21585 0.106722 -0.0576096 -0.122866 0.990544 -0.0610429 49 139 104
0.963732 0.271202 -0.149013 0.162227 0.767189 -0.620567 49 139 104
-0.499078 -0.239578 -0.233821 0.0639015 -0.551555 -0.831687 49 139 104
0.128468 0.122139 0.366526 0.855684 -0.115243 0.504503 220 3 122
-0.610948 0.153612 0.274501 -0.354243 0.858234 0.37141 49 139 104
-0.0573384 -0.29295 0.0710323 0.121344 -0.975868 0.181539 49 139 104
0.981597 0.308903 -0.0459956 0.182694 0.976644 -0.113089 49 139 104
0.0373589 0.0168568 -1.41639 0.315162 -0.949037 -0.00105792 220 3 122
0.432902 0.105813 0.269802 -0.0199352 0.180407 0.98339 49 139 104
0.305547 0.114609 -0.26758 0.0867458 0.176943 -0.980391 49 139 104
0.110856 0.0250843 -1.85765 0.627204 -0.769468 0.120556 220 3 122
-0.54115 -0.0880052 0.304701 -0.138493 -0.489449 0.860964 220 3 122
-0.131883 0.00829318 1.599 -0.354901 -0.931907 0.0747934 220 3 122
1.51079 0.0558792 0.147552 0.236732 0.835563 0.495775 163 1 65
-0.189941 -0.151857 -0.260054 0.0481812 -0.406998 -0.912157 220 3 122
1.54208 0.0183517 0.204322 0.143802 0.938533 0.313812 163 1 65
-1.52041 -0.0690883 0.204829 -0.323847 0.312446 0.893029 49 139 104
-0.0811835 0.00717251 1.73603 -0.375345 -0.924985 0.0593293 220 3 122
0.114435 0.0858086 1.98555 0.4189 0.898889 0.128537 220 3 122
0.576353 0.0777838 -0.272614 -0.00249071 0.000286492 -0.999997 49 139 104
-0.175935 0.102576 1.44787 -0.332598 0.938669 0.0909849 220 3 122
1.64739 -0.121772 -0.14045 0.438995 -0.731981 -0.521045 49 139 104
-0.0621616 0.172165 -0.825495 -0.016293 0.995554 -0.0927731 220 3 122
-0.940557 -0.393547 0.114416 0.115537 -0.925476 0.360756 49 139 104
0.476388 0.208627 -0.234993 -0.0696581 0.545712 -0.835072 49 139 104
0.00916089 0.0271489 1.13891 0.341916 -0.927289 -0.152406 220 3 122
-0.462697 0.203121 -0.096319 -0.124234 0.992253 0.0005957 49 139 104
-0.160421 -0.00485703 1.29526 -0.0686615 -0.99716 0.030937 220 3 122
-1.56839 -0.0273799 -0.149947 -0.409488 0.63057 -0.659318 49 139 104
1.74888 -0.342286 0.0364911 0.0193936 -0.443698 0.895966 171 36 184
-1.41772 0.0799968 0.0687841 -0.19344 0.953258 0.232122 49 139 104
-0.22586 0.0576601 1.38938 -0.896936 0.37898 0.227772 220 3 122
-1.57124 -0.166608 -0.194556 -0.387134 0.000489742 -0.922023 49 139 104
-0.862646 -0.201594 0.270651 0.0246762 -0.181033 0.983167 49 139 104
-1.52657 0.0466916 -0.056141 -0.349959 0.890006 -0.292262 49 139 104
-0.176907 0.155396 -0.942746 -0.107025 0.99257 -0.0578778 220 3 122
0.311813 -0.00392139 -0.272253 0.0244995 -0.0677336 -0.997403 49 139 104
0.306115 -0.122746 -0.246217 0.0422896 -0.359833 -0.932058 49 139 104
-0.161083 0.240082 -0.138166 -0.122965 0.992342 -0.0117186 49 139 104
0.737928 -0.19608 -0.0551566 0.122555 -0.990512 -0.0621788 49 139 104
-0.544805 0.156391 -0.321983 -0.336704 0.903584 -0.264889 49 139 104
-0.288598 0.0982554 -1.17889 -0.798026 0.54373 -0.259831 220 3 122
-1.726 -0.241671 0.0519563 -0.858019 -0.452328 0.243317 49 139 104
0.796881 0.300837 -0.138297 0.0800399 0.923001 -0.376382 49 139 104
1.23257 0.0434361 -0.202416 0.128769 0.0877011 -0.987789 163 1 65
0.0324417 0.13041 1.65871 0.0778316 0.996597 0.0271541 220 3 122
0.889666 0.199874 -0.227299 0.14379 0.515443 -0.844774 49 139 104
-1.44807 -0.223587 -0.231276 -0.26185 -0.242082 -0.934254 49 139 104
0.400917 -0.0845881 -0.256594 0.0420979 -0.358299 -0.932657 49 139 104
-1.04171 -0.386217 -0.151211 0.100679 -0.829019 -0.550082 49 139 104
1.52594 -0.0167484 0.378247 -0.156582 0.984542 0.0784846 163 1 65
-1.67433 -0.29734 -0.0172823 -0.644661 -0.754464 -0.123274 49 139 104
0.036411 0.0393331 1.12712 0.489521 -0.867324 -0.0900988 220 3 122
1.6015 -0.297474 -0.0540439 -0.125988 -0.460751 -0.878541 171 36 184
-0.0987378 0.0285576 -1.87008 -0.902403 -0.39296 -0.176781 220 3 122
1.65219 -0.0176446 0.468657 0.296306 0.954672 0.0283504 163 1 65
0.485165 0.263676 0.189681 -0.0847462 0.701821 0.707295 49 139 104
-0.491225 -0.13001 -0.281947 -0.0143678 -0.409842 -0.912043 220 3 122
-0.428206 0.153828 0.607336 -0.408142 0.886649 0.217424 163 1 65
0.0110555 0.13262 -1.578 -0.0648231 0.997886 -0.00455793 220 3 122
1.22535 0.0055127 0.194286 0.169489 -0.0583341 0.983804 163 1 65
-1.74302 -0.17437 0.0741071 -0.938834 0.0389823 0.342157 49 139 104
-0.528817 0.154788 0.365847 -0.214076 0.966532 0.141377 220 3 122
1.05861 -0.104984 -0.176805 0.101443 -0.774666 -0.624181 163 1 65
-0.945808 -0.134049 0.276443 0.00248881 -0.000288511 0.999997 49 139 104
-0.263755 -0.0968945 0.290049 0.0548851 -0.425129 0.903467 220 3 122
0.137564 0.032832 2.03376 0.828851 0.000940369 0.559469 220 3 122
-0.451958 0.202506 0.175229 -0.122669 0.991191 0.0499279 49 139 104
-0.0995724 0.166146 0.920324 -0.105117 0.992366 0.0645055 220 3 122
-1.25678 -0.407283 0.140856 -0.0296465 -0.923623 0.382154 49 139 104
-0.226427 0.125703 -1.25906 -0.62613 0.705129 -0.332798 220 3 122
0.115715 -0.274021 -0.0399517 0.122558 -0.990512 -0.0621791 49 139 104
-0.506662 0.131751 0.518066 -0.583207 0.786981 0.20132 220 3 122
-0.258799 0.213988 0.265181 -0.12013 0.973546 0.194364 49 139 104
1.52607 -0.221804 0.0740528 -0.213699 -0.657708 0.722325 171 36 184
-0.138157 0.025164 -1.69511 -0.751575 -0.639981 -0.159871 49 139 104
0.646523 0.329522 -0.0860512 -0.0485921 0.974317 -0.219873 49 139 104
0.522202 -0.223256 -0.0474355 0.12256 -0.990511 -0.062178 49 139 104
-0.0873611 0.183391 0.757908 0.0585676 0.992712 0.105325 220 3 122
0.362451 -0.244054 -0.0309993 0.122558 -0.990512 -0.0621809 49 139 104
1.621 0.0214525 -0.107791 0.676608 0.679229 -0.284342 49 139 104
-0.322255 0.178575 0.439715 -0.122669 0.991193 0.0498772 220 3 122
1.63048 -0.0113089 0.189527 0.516605 0.856218 0.0032497 163 1 65
1.57599 -0.0184464 -0.498814 -0.103895 0.977044 -0.185987 163 1 65
-0.255124 0.0174339 -0.669688 0.122942 -0.992414 -0.000592449 220 3 122
-1.15415 -0.431972 -0.00727069 0.103696 -0.994528 0.0127345 49 139 104
-0.610199 -0.34596 -0.124538 0.113737 -0.925269 -0.361859 49 139 104
1.44592 -0.100792 -0.385945 -0.926873 -0.247755 -0.281999 163 1 65
0.39748 0.303295 -0.0798816 -0.12134 0.975876 -0.181502 49 139 104
-0.101326 0.0687769 -1.8441 -0.773236 0.597593 -0.212104 220 3 122
-0.379038 -0.321788 0.11867 0.115538 -0.925476 0.360756 49 139 104
1.55711 -0.00233738 0.274618 0.0504834 0.991243 0.122019 163 1 65
1.70922 -0.0854633 -0.0216954 0.90562 0.382856 -0.182412 171 36 184
0.0925345 0.11185 1.74779 0.579952 0.814141 -0.0287991 220 3 122
-0.051567 0.105823 1.80791 -0.244151 0.931396 0.269985 220 3 122
-1.41653 -0.0183521 0.216752 -0.216235 0.445241 0.868909 49 139 104
0.354593 -0.0349013 0.270588 0.0248298 -0.180978 0.983174 49 139 104
1.49299 -0.260646 -0.0142816 -0.54328 -0.837279 0.0617335 171 36 184
-0.221407 0.216987 -0.270748 -0.121093 0.973656 -0.19321 49 139 104
-0.375945 0.160124 -0.679781 -0.365391 0.901917 -0.230292 220 3 122
-1.65018 -0.306019 -0.073852 -0.618441 -0.760074 -0.199548 49 139 104
-1.18885 -0.0902683 -0.264013 -0.0306565 0.181484 -0.982916 49 139 104
0.935563 0.201597 0.21573 0.195493 0.419208 0.886593 163 1 65
0.991198 -0.158435 0.0928934 0.121294 -0.975463 0.183739 49 139 104
0.14502 0.054044 1.87251 0.974686 -0.174281 -0.140046 220 3 122
-0.647985 0.0754524 0.321787 -0.684128 0.239242 0.689008 49 139 104
0.00264742 0.173863 -0.943639 -0.0607714 0.998152 0.000436269 220 3 122
1.69626 -0.196175 0.0599731 0.266522 -0.198754 0.943114 171 36 184
-0.253765 -0.157146 -0.261065 0.0481822 -0.406997 -0.912158 49 139 104
0.0264977 0.213857 -0.400434 0.102514 0.988152 -0.114222 220 3 122
0.448498 0.313357 0.0542292 -0.122554 0.990509 0.0622296 49 139 104
-0.53217 0.132873 -0.430007 -0.505109 0.835214 -0.217443 220 3 122
1.01289 0.0666023 0.231022 0.123837 -0.00800056 0.99227 163 1 65
-0.439877 0.197591 0.23539 -0.120131 0.973546 0.194364 49 139 104
-0.881349 -0.270968 0.250141 0.0467455 -0.358878 0.932213 49 139 104
-1.03704 -0.266335 -0.251678 0.0420959 -0.358295 -0.932659 49 139 104
-0.492305 0.198922 0.139805 -0.122906 0.992334 0.0129027 49 139 104
-0.023449 0.17291 -0.841254 -0.0279696 0.999163 -0.0298498 220 3 122
-1.56534 -0.309903 -0.141379 -0.359604 -0.678185 -0.640898 49 139 104
-0.456554 0.194848 -0.234408 -0.123342 0.973177 -0.194199 49 139 104
1.62729 -0.286211 -0.0621523 0.00414087 -0.244691 -0.969592 171 36 184
-0.182159 -0.195878 -0.237616 0.0664335 -0.552737 -0.830704 49 139 104
0.501778 0.162849 0.258757 -0.0421006 0.358344 0.93264 49 139 104
-1.22404 0.106042 0.0601616 -0.122553 0.990509 0.0622296 49 139 104
-1.56359 -0.0605668 0.185095 -0.322089 0.463535 0.825466 49 139 104
0.0745376 -0.110383 -0.263921 0.0488842 -0.32479 -0.944522 49 139 104
-0.26296 0.0187268 0.889541 -0.0596315 -0.998088 0.016261 220 3 122
0.0730179 0.162844 1.08821 0.321325 0.946386 0.0332105 220 3 122
-0.160273 0.237601 0.192661 -0.120478 0.985012 0.123437 49 139 104
-0.69513 0.174234 0.0214468 -0.122962 0.992366 -0.00951588 49 139 104
-0.0117838 -0.12412 -0.263019 0.0481785 -0.406998 -0.912157 220 3 122
-0.00733816 0.259528 -0.0783136 -0.12294 0.992414 0.00058989 49 139 104
1.56164 0.00249867 -0.226516 0.297876 0.889697 -0.34599 163 1 65
-0.248045 0.128708 1.20087 -0.50936 0.826195 0.240737 220 3 122
0.0701344 0.0885338 0.437967 0.498937 -0.828048 0.25573 220 3 122
1.08642 -0.0781661 -0.191968 0.10772 -0.568194 -0.815814 163 1 65
-0.0421157 0.076588 1.937 -0.382069 0.909222 0.165342 220 3 122
-0.34482 0.183489 -0.354305 -0.121092 0.973656 -0.193211 49 139 104
-0.617872 0.178232 0.190797 -0.179068 0.977864 0.108248 49 139 104
-0.442125 0.16447 0.421173 -0.132835 0.989564 0.0558426 220 3 122
-1.5652 0.039149 0.0217023 -0.420256 0.899057 0.122805 49 139 104
-0.277715 0.117053 -1.16369 -0.670455 0.671232 -0.316129 220 3 122
-1.51518 -0.121784 -0.211269 -0.326834 0.180346 -0.927715 49 139 104
1.18821 -0.0911483 0.167082 0.117134 -0.696061 0.708363 163 1 65
0.680602 0.136251 0.267517 0.0108573 0.177031 0.984145 49 139 104
-0.0344134 0.021971 -1.10004 0.258197 -0.937931 0.231559 220 3 122
-0.326043 0.00869468 -0.576733 0.117457 -0.993078 -0.000577919 220 3 122
-1.35659 -0.044816 0.246602 -0.232698 0.345011 0.909296 49 139 104
1.65984 -0.0236796 0.286543 0.517555 0.849718 -0.100583 163 1 65
1.46251 -0.221631 -0.0547659 -0.47328 -0.797085 -0.375048 171 36 184
0.799388 0.226156 0.224927 0.112362 0.553716 0.82509 49 139 104
-1.35118 -0.293431 0.238012 -0.144319 -0.452406 0.880057 49 139 104
1.42386 -0.0258484 -0.28098 -0.208524 0.802383 -0.559196 163 1 65
-1.21723 -0.226167 -0.265544 -0.0134836 -0.0747057 -0.997114 49 139 104
0.0428321 0.250614 0.207861 0.0216546 0.985171 0.170202 49 139 104
1.76142 -0.270037 -0.0570145 0.277726 0.0710155 -0.958032 171 36 184
0.0601546 0.0208667 1.66669 0.311582 -0.950204 -0.00536789 220 3 122
-0.171597 0.193842 -0.702212 -0.0707861 0.995124 -0.0686842 220 3 122
0.672669 -0.0309238 -0.263528 0.0262435 -0.18041 -0.983241 49 139 104
-0.037684 -0.000356593 -1.79404 -0.00203577 -0.993891 0.110347 220 3 122
-0.0159224 0.21913 -0.359381 -0.0268754 0.994374 -0.102464 49 139 104
1.50303 0.0868756 -0.0964075 0.302001 0.868527 -0.393009 49 139 104
-0.507578 0.0374121 -0.525771 -0.598428 -0.7607 -0.251435 220 3 122
-1.11192 0.0515504 -0.199512 -0.0886917 0.701923 -0.706709 49 139 104
-1.36251 0.0907335 0.0101987 -0.127155 0.991841 -0.00911776 49 139 104
0.218527 -0.259986 0.0637559 0.122862 -0.990547 0.061002 49 139 104
1.18614 0.200592 -0.151732 0.305966 0.631844 -0.71215 49 139 104
1.00231 -0.0423944 -0.222825 0.135406 -0.429836 -0.892696 163 1 65
-0.482078 -0.284944 -0.194824 0.0851727 -0.701539 -0.707523 49 139 104
-0.493136 -0.345358 0.0805978 0.121342 -0.975869 0.181536 49 139 104
0.0955289 0.0750771 -1.22923 0.936963 -0.338446 -0.0869102 220 3 122
0.00177802 -0.161134 0.248695 0.0543233 -0.401351 0.914312 49 139 104
1.45576 -0.0146012 -0.279171 -0.110716 0.913195 -0.392195 163 1 65
1.50538 -0.264641 0.0154741 -0.463264 -0.731977 0.499595 171 36 184
-0.783129 -0.234389 -0.25249 0.0420977 -0.358297 -0.932658 49 139 104
-0.353664 0.21656 0.0288753 -0.122945 0.992413 0.000594789 49 139 104
0.908133 0.0469682 -0.25324 0.194398 -0.0389305 -0.98015 163 1 65
0.361144 0.304612 -0.0072643 -0.122946 0.992413 0.000596674 49 139 104
-0.477297 0.00505926 -0.486588 -0.388975 -0.898613 -0.20296 220 3 122
1.56075 -0.136127 -0.272297 0.130034 -0.990864 -0.0357699 163 1 65
1.84325 -0.31313 0.0117355 0.698179 0.393517 0.598072 171 36 184
0.0321671 0.013517 1.35798 0.304447 -0.951764 -0.0381813 220 3 122
0.0962625 0.149664 0.887534 0.707915 0.706296 -0.00156019 220 3 122
0.0930811 0.227192 0.27415 0.290165 0.904636 0.312152 49 139 104
-0.141857 0.0343656 -1.71901 -0.736945 -0.663218 -0.130591 220 3 122
-0.317708 0.198707 -0.297502 -0.120264 0.966256 -0.227785 49 139 104
0.758286 0.292821 -0.159024 0.0570385 0.846777 -0.528881 49 139 104
0.0692498 0.0294461 1.33289 0.540525 -0.837925 -0.0755907 220 3 122
-1.49097 -0.117446 0.22804 -0.319312 0.184205 0.929574 49 139 104
-0.328613 0.0248005 -0.873127 -0.288332 -0.955284 -0.0655467 220 3 122
-0.422149 0.0888047 0.756507 -0.938515 0.180891 0.294054 220 3 122
-0.103641 0.0355024 0.565466 0.12374 -0.992309 -0.00344537 220 3 122
-1.37139 0.055223 -0.14588 -0.205739 0.805067 -0.556363 49 139 104
1.4244 -0.139799 -0.190454 -0.229295 -0.922788 -0.309656 163 1 65
0.51017 0.32009 -0.0649175 -0.121341 0.975876 -0.181502 49 139 104
-0.114274 0.0975841 -1.71762 -0.558084 0.817502 -0.14224 220 3 122
-0.661486 -0.329898 -0.166054 0.101336 -0.828918 -0.550114 49 139 104
-1.28697 -0.400872 0.146134 -0.113727 -0.868869 0.481802 49 139 104
1.02405 0.233596 -0.178164 0.15431 0.644657 -0.748736 49 139 104
0.242226 0.154862 0.262131 0.237114 0.334405 0.912113 49 139 104
-0.398292 0.000731358 -0.50412 0.0514326 -0.998164 -0.0319874 220 3 122
1.56995 -0.112781 -0.546867 0.0588334 -0.893995 -0.444197 163 1 65
0.113208 0.0362115 1.78327 0.637594 -0.743734 -0.200831 220 3 122
-0.0639724 0.127731 1.44525 -0.135522 0.984061 0.115142 220 3 122
-0.81457 0.00708591 -0.253636 -0.0736905 0.344832 -0.935767 49 139 104
